1.532595330913609359e+04,1.533042168888836750e+04,1.533283843382378109e+04,1.533322835129723535e+04,1.533162191530279233e+04,1.532805514594499255e+04,1.532256946260406403e+04,1.530159416702430462e+04,1.529242378003249178e+04,1.528149083948365296e+04,1.526885631667071721e+04,1.524094499204659951e+04,1.522512117520419997e+04,1.519412836829427397e+04,1.517541170637021423e+04,1.519178968799189897e+04,1.517043036957507138e+04,1.513428450167339179e+04,1.509702719644369790e+04,1.507244890858590952e+04,1.503328159214637708e+04,1.504341757767376839e+04,1.500268930227326928e+04,1.497497909430571599e+04,1.493305415241999435e+04,1.489064217284871847e+04,1.489799041366006713e+04,1.486853632422105875e+04,1.482523086916719330e+04,1.478176567767091910e+04,1.473821551743769669e+04,1.474480392445955658e+04,1.470131610146880848e+04,1.467164717199173174e+04,1.462849316732489388e+04,1.458557014680479188e+04,1.459307598835154204e+04,1.455078682994036353e+04,1.452258012942824280e+04,1.448110460724358563e+04,1.444006378335595946e+04,1.444965610412761453e+04,1.442328631508006947e+04,1.438376929370441940e+04,1.434476652558980277e+04,1.432004613681373303e+04,1.428214004058777937e+04,1.429492040523656760e+04,1.427182037408379256e+04,1.423558814158212044e+04,1.419987174949469045e+04,1.417844167809779174e+04,1.419392979575303616e+04,1.417348229767664452e+04,1.413987130382910254e+04,1.412042823631409556e+04,1.408776012131405878e+04,1.406926412769765011e+04,1.403748035973522929e+04,1.401987734930473380e+04,1.403906556152750272e+04,1.402225118072816986e+04,1.399216504607297247e+04,1.397617360459530028e+04,1.394686374949675519e+04,1.393168790574540617e+04,1.390315749437216436e+04,1.388881551874076831e+04,1.387489934752255795e+04,1.389780668263870757e+04,1.388475993938845932e+04,1.387220018875275855e+04,1.384646120848253486e+04,1.383497483956531505e+04,1.382407077882305020e+04,1.380005459473188967e+04,1.379044707380572800e+04,1.378155045945604797e+04,1.377341434858000139e+04,1.375231843549956102e+04,1.374586948928982019e+04,1.374034441125180456e+04,1.373580185567960143e+04,1.373230176590016345e+04,1.372990492527099559e+04,1.372867248750512954e+04,1.372866549025950371e+04,1.372994435608427739e+04,1.373256838495572447e+04,1.373659524269957910e+04,1.374208044965850422e+04,1.374907687396049732e+04,1.377141227003795211e+04,1.378158682813995983e+04,1.379341203804797260e+04,1.382066623420905671e+04,1.383591534758362104e+04,1.385291395030319109e+04,1.388540265597472899e+04,1.386957569495317875e+04,1.389189032332718489e+04,1.392977263102098368e+04,1.396942475368097075e+04,1.399715832242774195e+04,1.404036736563724116e+04,1.403517923451101524e+04,1.408182987521882751e+04,1.413014024652080843e+04,1.418006817631525337e+04,1.418145313436034485e+04,1.423445076550089289e+04,1.428889171135425568e+04,1.429454987113180687e+04,1.435163743775742478e+04,1.442362927673605736e+04,1.443291092410450801e+04,1.449330234454994206e+04,1.456829990658754832e+04,1.458032133687031455e+04
1.534989073398476467e+04,1.535437418571539456e+04,1.537037191941920901e+04,1.537055785192770418e+04,1.536863818386624916e+04,1.535098022994759958e+04,1.534497560640584561e+04,1.533699980293418048e+04,1.532710842767544091e+04,1.535182757405715529e+04,1.533826073039963376e+04,1.532297195793487481e+04,1.529242746623206767e+04,1.527394156890947488e+04,1.524033323695484432e+04,1.521898784690181492e+04,1.518267110101808794e+04,1.519526717582755373e+04,1.517024452723364811e+04,1.513058603780280100e+04,1.508998015850500087e+04,1.504852590924105607e+04,1.502005395164687070e+04,1.502732956531154923e+04,1.498398136364782113e+04,1.494017151198815554e+04,1.489599310864278232e+04,1.490171068974261289e+04,1.487073749905906152e+04,1.482604027150149341e+04,1.478131620948543423e+04,1.473664132940222044e+04,1.474223072134962422e+04,1.469788348431314807e+04,1.465378597843271564e+04,1.462373263494641287e+04,1.458033907035819720e+04,1.458747743339289445e+04,1.454495617434542510e+04,1.450291381559963338e+04,1.447513079918656149e+04,1.443416992841757019e+04,1.444391042522111093e+04,1.440409566395418369e+04,1.437858442025099066e+04,1.433995928590020048e+04,1.430190587349041016e+04,1.427822058740054490e+04,1.429148129841810442e+04,1.426888848106490332e+04,1.423317136410070816e+04,1.419796342804460437e+04,1.417702265430445550e+04,1.419296985470980871e+04,1.417294661075470503e+04,1.413971129817259498e+04,1.412058496514163562e+04,1.408816559137811419e+04,1.406984246016279212e+04,1.403814711474819342e+04,1.402054245004526456e+04,1.403963378014831687e+04,1.402261870408232789e+04,1.399222558451647637e+04,1.397581828027291340e+04,1.394598214667526190e+04,1.393016754444144317e+04,1.390088863309394219e+04,1.388568602628697408e+04,1.387080094372518943e+04,1.389262094432412414e+04,1.387839700405282201e+04,1.385086636742745759e+04,1.383747401987877674e+04,1.382454709417911363e+04,1.379839736500527943e+04,1.378655007895646850e+04,1.377531346770579694e+04,1.375097311999122030e+04,1.374114222121174680e+04,1.373210264303206350e+04,1.372392102883805637e+04,1.375305011713443673e+04,1.374677672204244300e+04,1.374157621245179325e+04,1.373752176238654647e+04,1.373468674686923623e+04,1.373314414878468961e+04,1.373296595536134555e+04,1.373422254943702137e+04,1.373698210073111113e+04,1.374130996235020575e+04,1.374726807770907180e+04,1.371852574051739066e+04,1.372788885159406345e+04,1.373903718450656743e+04,1.375201338325307006e+04,1.378064133115872391e+04,1.379739340272251866e+04,1.382981529524212237e+04,1.385044373198051471e+04,1.388673924968493520e+04,1.387486900612307363e+04,1.390128875671455171e+04,1.394341707370203221e+04,1.398743223016554839e+04,1.403330841033969773e+04,1.403090106512271450e+04,1.408039060725900345e+04,1.413160757355357055e+04,1.418449340243203915e+04,1.418884441856908961e+04,1.424484049420568044e+04,1.430227876740912325e+04,1.432462190845870646e+04,1.438461454708949896e+04,1.444576381932079676e+04,1.447151161371869966e+04,1.453458429282324505e+04
1.543489753461189684e+04,1.543948807693101116e+04,1.544180246640797122e+04,1.544186745832039742e+04,1.543971667107046233e+04,1.543539047206373652e+04,1.542893582885758951e+04,1.542040612509311177e+04,1.539622662382500130e+04,1.538374253676491207e+04,1.536938132742122980e+04,1.533955860783194657e+04,1.532169333143346012e+04,1.533862999662911170e+04,1.530392154882272007e+04,1.528140106591745280e+04,1.524388442652934464e+04,1.521878016914616455e+04,1.517886352282192092e+04,1.518800951391318813e+04,1.514610174357902724e+04,1.510334330359182786e+04,1.507354347636006423e+04,1.502944399523214088e+04,1.503492921015562024e+04,1.498988641206262400e+04,1.494451469468566938e+04,1.489891191599270678e+04,1.490335198112006765e+04,1.487123658196753240e+04,1.482554234768229071e+04,1.477996886036463547e+04,1.473459197115423740e+04,1.473961665693199029e+04,1.469485607710239128e+04,1.465048628000888857e+04,1.462029408329789294e+04,1.457689613929425832e+04,1.458414366565545788e+04,1.454186147550947499e+04,1.450016800746391527e+04,1.447283242979252827e+04,1.443241255585238105e+04,1.444277048841968644e+04,1.440364873820409412e+04,1.437888852291365038e+04,1.434106043896684423e+04,1.430383714399603195e+04,1.428100496908623609e+04,1.429513718720147153e+04,1.427340494516401668e+04,1.423852652119423146e+04,1.420412619068037020e+04,1.418395628431017394e+04,1.420063999905090895e+04,1.418126962076401105e+04,1.414860167090984760e+04,1.412996349643045687e+04,1.409792592272837646e+04,1.407988816234804108e+04,1.404835483953429502e+04,1.403080195735357120e+04,1.404984573948365869e+04,1.403262574570588185e+04,1.400188411836387240e+04,1.398500185404531658e+04,1.396827067299713963e+04,1.393798223360374686e+04,1.392157773359279963e+04,1.389159540304899565e+04,1.387556713521861820e+04,1.389613011565688066e+04,1.388051970885987976e+04,1.385149256871623220e+04,1.383650506578205386e+04,1.382189177350618411e+04,1.379397929876780836e+04,1.378029716440424090e+04,1.375339439670048887e+04,1.374090059666652814e+04,1.372910242964336067e+04,1.375446460908054723e+04,1.374426555262910551e+04,1.373500505816098303e+04,1.372676810560069862e+04,1.371964092049532337e+04,1.369999978025985183e+04,1.369535702624093392e+04,1.369208195309812436e+04,1.369025874773299438e+04,1.368996932923182612e+04,1.369129263962249388e+04,1.369430394672683906e+04,1.369907416513448698e+04,1.371938539054009016e+04,1.372787400340256863e+04,1.373830369551296462e+04,1.375072178795628133e+04,1.372875252490842831e+04,1.374521610309541575e+04,1.377754319668243988e+04,1.379820173294015694e+04,1.383471898836182663e+04,1.387331512465522974e+04,1.390032317740481813e+04,1.389294073115085484e+04,1.393776596442700247e+04,1.398458411133196205e+04,1.403335265361677739e+04,1.403389869461514172e+04,1.408639494943909813e+04,1.414065275247619138e+04,1.419659397729177726e+04,1.420394166346124257e+04,1.427666025454676128e+04,1.428691236820365884e+04,1.434854371927730972e+04,1.442504140897811158e+04,1.443874023798093549e+04
1.550317223423623363e+04,1.547145889157915371e+04,1.547384601597860456e+04,1.547388258367605158e+04,1.547160311630286742e+04,1.550352841627236921e+04,1.549673387590207858e+04,1.548776548380902386e+04,1.547668645722523797e+04,1.544996129013688187e+04,1.543488998702669051e+04,1.540429619266811642e+04,1.538556693890501629e+04,1.535146690182661405e+04,1.532945576694028568e+04,1.534238796771393390e+04,1.530380439577612560e+04,1.527757402086150250e+04,1.523652954409757513e+04,1.519440575318410993e+04,1.520148897208159906e+04,1.517121024877903983e+04,1.512660363209122443e+04,1.508138007684334298e+04,1.503565367335907649e+04,1.503966845000415924e+04,1.499328136605332838e+04,1.494671699285888462e+04,1.490007696125324583e+04,1.490363886183866998e+04,1.487080124607362086e+04,1.482454545338996104e+04,1.477857068828094634e+04,1.473295099702410516e+04,1.473788248434112757e+04,1.469318616989033762e+04,1.464902722561877454e+04,1.461918500905123074e+04,1.457627120290970197e+04,1.458412705374092911e+04,1.454257045659876894e+04,1.450170721872360446e+04,1.447529752063675551e+04,1.443588337559640058e+04,1.444733140554066631e+04,1.442303586398318294e+04,1.438576446366161690e+04,1.434913991505029844e+04,1.432689936650032178e+04,1.429152581214514794e+04,1.427049467905340134e+04,1.428635240168171003e+04,1.425260321241148631e+04,1.423302285604583449e+04,1.420011636649913271e+04,1.418131793490232667e+04,1.419923937190277502e+04,1.418097124861786142e+04,1.414925241916926461e+04,1.413140206190117169e+04,1.409998230371877435e+04,1.408239066921142512e+04,1.405112421134673059e+04,1.403366261377444607e+04,1.405262704610175570e+04,1.403514399569219677e+04,1.400396484960088856e+04,1.398648089978142525e+04,1.396898878153186524e+04,1.393778939282440115e+04,1.392033522951920168e+04,1.388917834104009671e+04,1.387186063377148821e+04,1.389102192211162765e+04,1.387393635567749152e+04,1.384337581819554907e+04,1.382679995756936842e+04,1.379683743803511607e+04,1.378103912199163460e+04,1.375196478328446392e+04,1.373725811255918234e+04,1.372322016755273216e+04,1.374630950244225096e+04,1.373385728349650162e+04,1.372236331706313649e+04,1.369821933317621006e+04,1.368895351879260852e+04,1.368094822332233889e+04,1.367430430827397504e+04,1.366912114736135118e+04,1.365174686903919792e+04,1.364977521019076812e+04,1.364954345150862355e+04,1.365113669657654827e+04,1.366838636959323776e+04,1.367386767388842418e+04,1.368139541065631784e+04,1.369102849600813352e+04,1.370281768090437981e+04,1.373053235281753587e+04,1.374676696108159376e+04,1.372884215106139891e+04,1.374954847033895203e+04,1.378631498160844785e+04,1.382531942949371296e+04,1.385285053759318544e+04,1.389633049019303871e+04,1.389183074558776570e+04,1.393961915030679666e+04,1.398947553236735985e+04,1.404133670893681119e+04,1.404496890024165623e+04,1.410059104924913845e+04,1.412156805386074120e+04,1.418053305587265640e+04,1.424103597725322470e+04,1.430296082906331867e+04,1.432972220087700407e+04,1.439404479601542698e+04
1.553151648237416521e+04,1.553655677347767050e+04,1.553911889678158332e+04,1.553922963853980764e+04,1.553692394840641646e+04,1.553224485475438996e+04,1.552524333529596333e+04,1.550231701486776001e+04,1.549086454294144642e+04,1.547729015589802293e+04,1.549814054658741225e+04,1.548052892473072279e+04,1.544744870879239170e+04,1.542622402167180553e+04,1.538971045199790387e+04,1.535162422332793358e+04,1.532579577532186522e+04,1.533507367255695863e+04,1.529304933907274972e+04,1.524993180585023947e+04,1.521953352599969367e+04,1.517464501228526933e+04,1.517913687081108219e+04,1.513295458740106551e+04,1.508630291932320688e+04,1.503930274308350636e+04,1.504221238992866711e+04,1.499487349624608760e+04,1.494752651372490800e+04,1.490027564024625462e+04,1.490339903122326359e+04,1.487029563167228480e+04,1.482394717808233690e+04,1.477805026831963914e+04,1.473267527952574892e+04,1.473801381886919262e+04,1.469388173831554013e+04,1.465043582269549370e+04,1.462144891556527000e+04,1.457951960903138388e+04,1.458849461098472239e+04,1.454815417671954492e+04,1.452231699210093939e+04,1.448359383382654050e+04,1.444564164188219002e+04,1.442222352161479648e+04,1.443591671914816834e+04,1.440022474510048050e+04,1.437891775045241229e+04,1.434453390029090224e+04,1.432447117979466566e+04,1.429119909549158183e+04,1.427217102352337679e+04,1.428992636317529832e+04,1.427163687291063252e+04,1.423996435662591830e+04,1.422223816282238113e+04,1.419097263599839061e+04,1.417357171725068474e+04,1.419263203892490128e+04,1.417527436715314980e+04,1.414421916561399121e+04,1.412677488506407826e+04,1.409551562736119376e+04,1.407783517617729376e+04,1.404624738491483731e+04,1.402823308916192036e+04,1.404641448295232840e+04,1.402796281192163588e+04,1.399564089487696765e+04,1.397684455197156058e+04,1.394418353781045880e+04,1.392514037355501205e+04,1.389227360503704404e+04,1.387315158404514659e+04,1.389042741547818878e+04,1.387139376333192922e+04,1.383885164617878036e+04,1.382027553368930239e+04,1.378832716066311696e+04,1.377056460671729292e+04,1.373958861211870681e+04,1.372304170576581964e+04,1.374361545391764957e+04,1.372866597496674513e+04,1.370099826147008571e+04,1.368816549704445060e+04,1.367655991489838925e+04,1.365254903736803681e+04,1.364375702588103013e+04,1.363653718025996932e+04,1.363099952874824521e+04,1.362724983371159760e+04,1.362538867720670532e+04,1.362551057902621687e+04,1.362770315491070505e+04,1.363204632222829969e+04,1.363861155996500747e+04,1.364746122934555751e+04,1.367240383476662100e+04,1.368598364920495078e+04,1.370197693228587741e+04,1.373413513656432042e+04,1.371863739628760959e+04,1.374190980982271140e+04,1.378139236057139351e+04,1.382325441098390729e+04,1.385376373089710250e+04,1.390032001153103192e+04,1.389894875193448388e+04,1.394993459228897700e+04,1.400301916665854515e+04,1.402169502000397188e+04,1.407865116337704239e+04,1.413740891736844787e+04,1.419785194959980436e+04,1.422338523576897569e+04,1.428674786467172089e+04,1.430121618265670259e+04
1.559270432622995577e+04,1.559811881850979989e+04,1.560096162582098623e+04,1.560125860556415864e+04,1.559904446899835602e+04,1.559436272250959883e+04,1.558726555857024505e+04,1.557781369457548135e+04,1.555244705898655229e+04,1.553851312969904393e+04,1.552245724230440101e+04,1.549072053292577039e+04,1.547072138427171740e+04,1.548533431081561139e+04,1.544813906759317615e+04,1.542296949568379205e+04,1.538270005249686074e+04,1.534106328422864317e+04,1.534834888951524044e+04,1.530439500005549053e+04,1.527312837666494306e+04,1.522740763654012699e+04,1.518098846485349350e+04,1.518411818496111664e+04,1.513671332954804529e+04,1.508900658800633391e+04,1.504112479523548973e+04,1.504333486774723860e+04,1.499547288200838375e+04,1.494778779408655828e+04,1.490038493454389391e+04,1.490354273673560238e+04,1.487065867897938006e+04,1.482471160837373463e+04,1.477939389348853729e+04,1.473477015994963585e+04,1.474103516855419730e+04,1.469797946410573786e+04,1.466945693494769512e+04,1.462813639225414954e+04,1.458769239466733416e+04,1.459829724935872946e+04,1.457333657285757363e+04,1.453561128526640823e+04,1.449873602855645004e+04,1.447643386905131047e+04,1.444120961068948964e+04,1.442050529650581302e+04,1.443688301392566063e+04,1.440382061001082184e+04,1.438506482677170425e+04,1.435312203862817842e+04,1.433538276024055085e+04,1.430427758279579575e+04,1.428726400375599042e+04,1.427049225916605792e+04,1.429024902880677837e+04,1.427369400077749742e+04,1.424346926737943431e+04,1.422690067774755880e+04,1.419648917586769676e+04,1.417964583000028506e+04,1.419897916447170428e+04,1.418158054098609136e+04,1.415018664466519840e+04,1.413212749023380456e+04,1.409997916224712390e+04,1.408116051451052772e+04,1.404819630159629742e+04,1.402859330873822910e+04,1.404498973963255412e+04,1.402458428993064445e+04,1.399017320749335340e+04,1.396917262985531124e+04,1.393423565433034673e+04,1.389910277005040552e+04,1.387765527700851089e+04,1.389256716275081271e+04,1.387113842596655013e+04,1.383620969587669242e+04,1.380154228777377284e+04,1.378103702117144712e+04,1.374729013610357651e+04,1.372798151032614987e+04,1.374581712770849117e+04,1.372815311033633770e+04,1.369782920496899169e+04,1.368241275012213737e+04,1.366831366126710782e+04,1.364192645280968281e+04,1.363087144456341048e+04,1.362152434334735153e+04,1.360022377940980368e+04,1.359466108348022681e+04,1.359115485753922258e+04,1.358980793489242205e+04,1.359071462421753677e+04,1.359395986324211117e+04,1.359961844236403704e+04,1.362154617386838072e+04,1.363222260814913898e+04,1.364547189327789238e+04,1.367508067568554543e+04,1.369356570891468436e+04,1.372839705255796434e+04,1.375213710370086483e+04,1.374201476393028861e+04,1.378460939390386920e+04,1.382968804173520766e+04,1.387719494250480784e+04,1.387696417355255107e+04,1.392910206134620239e+04,1.398341784760577139e+04,1.403980754902109038e+04,1.404798502472773544e+04,1.412184897658301634e+04,1.418366694011876825e+04,1.419687299602763960e+04,1.427530433479908970e+04
1.565006744877510937e+04,1.561946821852197172e+04,1.562269823766194168e+04,1.562330123732445645e+04,1.562131082970355055e+04,1.565325792140827980e+04,1.564620306595368311e+04,1.563670665291108890e+04,1.562483979972824454e+04,1.559709004027192714e+04,1.558074500259271008e+04,1.554867069411228294e+04,1.552824084733778727e+04,1.549227256971641327e+04,1.546820953834574902e+04,1.547892460751545150e+04,1.543804581500630593e+04,1.539576966369018191e+04,1.535223705265001627e+04,1.532130090313506662e+04,1.532580824473372195e+04,1.527942046453815419e+04,1.523235327082220465e+04,1.518475164569684421e+04,1.518688024288983434e+04,1.513864183142207912e+04,1.509028763489736593e+04,1.504194940490840236e+04,1.504389958251937060e+04,1.499597256869290140e+04,1.494842097990776529e+04,1.490134961002646014e+04,1.486859727462945739e+04,1.487288026814564364e+04,1.482784449823008617e+04,1.478361979143292410e+04,1.474026273463538382e+04,1.474798222612673999e+04,1.472018254229245940e+04,1.467973443772009341e+04,1.464027493193096598e+04,1.460180540440545883e+04,1.457809293200101820e+04,1.459175536966696382e+04,1.456993425853535882e+04,1.453537955132237403e+04,1.450167229218373541e+04,1.448251394706129213e+04,1.445037371559467283e+04,1.443268156830139924e+04,1.445200599976113881e+04,1.443541821855885792e+04,1.441927898707822897e+04,1.438982546012924286e+04,1.437432997870084364e+04,1.434529738123426796e+04,1.433007886068877997e+04,1.430110037624661345e+04,1.428579789673312916e+04,1.427031730449799215e+04,1.429094200433601509e+04,1.427482871887972578e+04,1.424462193120591110e+04,1.422765852044976782e+04,1.419645122863716097e+04,1.417842936216597445e+04,1.419621495352205238e+04,1.417693402991164476e+04,1.414335590669675730e+04,1.412283245105267270e+04,1.408799174554861384e+04,1.405252443456163746e+04,1.403026250100461766e+04,1.404386780994504807e+04,1.402057219829008682e+04,1.398321920530620264e+04,1.394553468475694535e+04,1.392137589251270401e+04,1.388336427520579309e+04,1.389549243502292666e+04,1.387130160332785454e+04,1.383367808921041433e+04,1.379641355466484674e+04,1.377342779356980463e+04,1.373735533622247749e+04,1.375226453658699756e+04,1.373170974750776077e+04,1.369857425723131746e+04,1.368044818299467443e+04,1.365000825864751823e+04,1.363491396156384144e+04,1.362154737117208424e+04,1.359626934700162383e+04,1.358678489528512000e+04,1.357942964986641891e+04,1.357432272353864391e+04,1.357157380467577605e+04,1.357128219610560336e+04,1.357353593426663429e+04,1.357841099617155851e+04,1.358597060083795805e+04,1.359626461092018872e+04,1.362312250440393109e+04,1.363899520065507386e+04,1.367142509078572039e+04,1.369291661409125663e+04,1.373091140755798551e+04,1.372154755925189238e+04,1.375119183337324648e+04,1.379725752149880282e+04,1.384585836013269727e+04,1.389690914148683078e+04,1.390013046959924395e+04,1.396948042706091655e+04,1.402718558896228205e+04,1.403673835168013466e+04,1.409821696792196599e+04,1.417505587767186807e+04,1.418956537748061237e+04
1.565331142300713691e+04,1.567343584761818056e+04,1.567718135709178750e+04,1.567822054035938345e+04,1.567658509399465402e+04,1.567231698737011175e+04,1.565181857984905946e+04,1.564246004267813987e+04,1.563065777971071657e+04,1.565298083450191189e+04,1.563650782602894469e+04,1.560426080435264157e+04,1.558356424023868749e+04,1.554729558962333249e+04,1.552284981201501796e+04,1.548306931251898641e+04,1.549185519448522246e+04,1.544910633083706489e+04,1.541872200003624312e+04,1.537360774616623530e+04,1.532752330065486603e+04,1.533072524151593097e+04,1.528317727182424278e+04,1.523512493336884654e+04,1.518672173607008881e+04,1.518824428332413663e+04,1.513959124834570684e+04,1.509102536923025036e+04,1.504268204465051531e+04,1.504483905405222322e+04,1.499732663563563256e+04,1.495039900140831014e+04,1.490415850187547039e+04,1.487244344418044784e+04,1.487797564344783314e+04,1.483436684049348696e+04,1.479175087074973271e+04,1.475017381143549574e+04,1.472342885037011001e+04,1.473417856996838236e+04,1.469595633439737139e+04,1.467254076521928073e+04,1.463655805562250316e+04,1.460163695436815033e+04,1.458151798718902864e+04,1.459881009319651639e+04,1.458059842302912148e+04,1.454959789977752371e+04,1.453309107523004059e+04,1.450359617157917819e+04,1.448845600846892921e+04,1.447384887834169785e+04,1.444593579326863983e+04,1.443209868996156729e+04,1.441847906319316826e+04,1.444134397892918787e+04,1.442779787306502112e+04,1.440045868656327366e+04,1.438660274514561752e+04,1.437243123644773732e+04,1.434413460293976823e+04,1.432906317674391903e+04,1.429965383431679220e+04,1.428335460311913630e+04,1.430272598028421635e+04,1.428488067492330447e+04,1.425251397352796630e+04,1.423300999898847658e+04,1.419890331269954913e+04,1.417766885240896954e+04,1.419195389949105447e+04,1.411887440288663493e+04,1.413145752050253213e+04,1.409318336538531003e+04,1.405418318417109549e+04,1.402832849202054786e+04,1.403830373508704361e+04,1.399771986507833935e+04,1.397051975741708884e+04,1.392941729197240784e+04,1.388822979895488243e+04,1.389727087637342629e+04,1.387008736094724736e+04,1.382961219367815647e+04,1.378966698429491953e+04,1.375041806822683429e+04,1.372585329409304541e+04,1.373869503076121327e+04,1.370265273526220699e+04,1.368175429819611600e+04,1.364868819131774944e+04,1.363112962816425716e+04,1.360168793498966261e+04,1.358810195408764412e+04,1.357671560028832755e+04,1.360403957226182683e+04,1.359743320120865246e+04,1.359340989060694119e+04,1.359207184295469779e+04,1.359350786721426994e+04,1.359779259288258618e+04,1.356860883113558521e+04,1.357872776414570399e+04,1.359182012698383187e+04,1.362169031597403227e+04,1.364076974082048400e+04,1.367657398922299035e+04,1.370157163755953661e+04,1.374318803111015586e+04,1.373746679057393339e+04,1.378461702881235396e+04,1.383439117432374042e+04,1.388668477524249465e+04,1.389123074471615837e+04,1.394817113150953082e+04,1.402092311183162383e+04,1.403180974129430251e+04,1.409456851030292455e+04,1.412255413550874800e+04
1.570272255910275271e+04,1.572352608127956046e+04,1.572791592858216609e+04,1.572952870997576974e+04,1.572839319167484064e+04,1.572454918659274699e+04,1.570442727297425154e+04,1.569533777327620191e+04,1.568372740894020535e+04,1.566967944440760766e+04,1.563964823254162911e+04,1.562103197688664659e+04,1.563673931888458901e+04,1.560034506704582600e+04,1.557568935637036338e+04,1.553568047129784827e+04,1.549406248354530544e+04,1.550115518602676457e+04,1.547041644035704667e+04,1.542496521307734656e+04,1.537854101629351499e+04,1.533131051730268518e+04,1.533355026235769037e+04,1.528521277521862066e+04,1.523656483426940395e+04,1.518776766872004373e+04,1.518910719569594949e+04,1.514048160129625467e+04,1.509216075180383632e+04,1.504428218345364439e+04,1.504713184704541345e+04,1.500052661863103276e+04,1.496839854446920799e+04,1.492353291019570315e+04,1.487965372256000410e+04,1.488695862187212333e+04,1.484528735782034346e+04,1.481847354841200286e+04,1.477921994652450667e+04,1.474119014259090181e+04,1.475457480311751715e+04,1.473272187082713936e+04,1.469844170746509917e+04,1.467903785376451560e+04,1.464709545953947236e+04,1.462995632235534140e+04,1.460011380596962408e+04,1.458495945843035588e+04,1.457065935736248503e+04,1.459350720398011617e+04,1.458057817594439257e+04,1.455450866167986533e+04,1.454254279034730280e+04,1.453086907283062465e+04,1.451936104345074273e+04,1.449418988857121440e+04,1.448264046735735610e+04,1.447087468682468170e+04,1.444503278342317208e+04,1.443248008896596730e+04,1.441935540898906766e+04,1.444193001139644184e+04,1.442731367558788043e+04,1.439814800438348902e+04,1.438173471757658990e+04,1.435059142582121422e+04,1.433212062773949583e+04,1.429879377665073844e+04,1.427810982909562881e+04,1.429265433734183898e+04,1.426963654760544887e+04,1.423182115496683400e+04,1.419290026313971612e+04,1.420311519504341413e+04,1.417587713390224962e+04,1.413409566602171981e+04,1.409151020183836226e+04,1.404823321406514151e+04,1.401817430467842496e+04,1.402403035662847105e+04,1.397954085952084279e+04,1.393493000962652150e+04,1.389036580141511513e+04,1.389619034084555460e+04,1.385227405965302023e+04,1.382269199350030976e+04,1.378019169470926863e+04,1.373866408555599628e+04,1.374847677749587456e+04,1.372322584406190435e+04,1.368584784773629508e+04,1.365019666540288017e+04,1.363024773444002494e+04,1.359862222573161125e+04,1.358306557541573420e+04,1.356993125922788749e+04,1.359571418330736924e+04,1.358781897454382852e+04,1.358274280217324849e+04,1.358058754202973796e+04,1.358143941430628183e+04,1.358536823817368713e+04,1.359242682198126568e+04,1.360265049365497543e+04,1.357965020560353878e+04,1.359619427536785952e+04,1.362969365849695168e+04,1.365253493976203026e+04,1.369222010825201869e+04,1.373488712296253652e+04,1.373034615399662289e+04,1.377872932986027445e+04,1.382979829932368011e+04,1.388342701783450320e+04,1.388933334511081921e+04,1.394761876149981981e+04,1.402169112975397729e+04,1.403384445083735045e+04,1.409780491745716427e+04
1.574814622017584043e+04,1.571968779847369296e+04,1.572484094076833571e+04,1.572716458715157933e+04,1.572668336581246695e+04,1.572343369695072761e+04,1.575393129652700736e+04,1.574528140824724687e+04,1.573403737213450950e+04,1.572028283951373305e+04,1.569050456428650068e+04,1.567204090402417933e+04,1.563774835163357784e+04,1.565153180196945323e+04,1.562684596250642790e+04,1.558678833529684925e+04,1.554507953183676000e+04,1.550188194955969811e+04,1.547106111206492642e+04,1.547551190314017003e+04,1.542891616996124503e+04,1.538151932976878015e+04,1.533349921726365574e+04,1.533514783897731104e+04,1.528641517291002674e+04,1.523758316139443195e+04,1.518881972189425142e+04,1.519042035630714963e+04,1.514227991410891991e+04,1.509467382708197692e+04,1.504774001089643571e+04,1.505177850846931688e+04,1.502022041616961360e+04,1.497608023069234332e+04,1.493305499929370126e+04,1.489122174317861209e+04,1.490081410137299099e+04,1.487523398244887358e+04,1.483737859217968071e+04,1.480088115798190120e+04,1.477947435320165823e+04,1.474573143840095145e+04,1.472706971784468624e+04,1.474612842873079353e+04,1.472999304689516430e+04,1.470138680893139099e+04,1.468756437066124636e+04,1.467475665807019686e+04,1.464916523183643585e+04,1.463807267847759067e+04,1.462765048528736224e+04,1.460403483471603249e+04,1.459456179991783574e+04,1.458534743209491717e+04,1.457624623695795890e+04,1.460352883161025238e+04,1.459418913831596728e+04,1.458452171584666939e+04,1.457438366302091163e+04,1.454996488100072020e+04,1.453848822089962778e+04,1.452614776171697304e+04,1.449912331812726916e+04,1.448473570926013053e+04,1.446917485717136879e+04,1.443863175289888750e+04,1.442051939915528055e+04,1.443740842174374848e+04,1.440279347223049263e+04,1.438046723252485390e+04,1.434301134909703978e+04,1.430413368079124484e+04,1.427767535252025118e+04,1.428625900414856733e+04,1.424348733714045375e+04,1.419954817521010409e+04,1.416831958991882857e+04,1.412242177113334765e+04,1.412581454866827698e+04,1.407847587303668843e+04,1.403064961776192649e+04,1.403262800515338313e+04,1.398437026362775941e+04,1.393618060443352442e+04,1.388826065274944995e+04,1.389096513552911347e+04,1.384422093962872168e+04,1.379837905763363233e+04,1.375365231889503775e+04,1.372406905420194380e+04,1.373236520898243180e+04,1.369231770852315822e+04,1.365421031935949577e+04,1.363203266977219027e+04,1.359841036567618721e+04,1.358109857737057609e+04,1.360282613446307369e+04,1.359096518511677277e+04,1.358205767484742682e+04,1.357621884616886382e+04,1.357354672357361414e+04,1.357412129253378953e+04,1.357800383107722155e+04,1.358523639900929993e+04,1.359584148826808087e+04,1.357343193833660916e+04,1.359072414492364624e+04,1.362512450123066083e+04,1.364901033598900540e+04,1.368985490304831183e+04,1.373377925287993276e+04,1.373057031328722951e+04,1.378033374142067623e+04,1.383281178408637061e+04,1.388785473940349766e+04,1.389513587781906244e+04,1.396849614377933904e+04,1.403013556333919405e+04,1.404345349063686444e+04
1.578964924205097486e+04,1.579862885625119088e+04,1.576821351460949518e+04,1.577140383660496445e+04,1.577173272842893493e+04,1.576923211200840888e+04,1.580043724608074990e+04,1.579240576407924527e+04,1.573161016223250772e+04,1.571837686097528785e+04,1.573909935446330928e+04,1.572097649822477251e+04,1.568699149395339191e+04,1.565085499493576935e+04,1.562640351875842316e+04,1.563656677222839789e+04,1.559494918801315362e+04,1.555180554325567209e+04,1.552097759386317921e+04,1.547535157067945693e+04,1.547883425156629528e+04,1.543143503246238106e+04,1.538342482513195137e+04,1.533499211413087323e+04,1.533644267820561072e+04,1.528772638851820375e+04,1.523913699786644429e+04,1.519084783965145471e+04,1.519316726867333637e+04,1.514597723908556509e+04,1.509956013154421817e+04,1.505405223055699025e+04,1.502331232094031293e+04,1.503012110672733979e+04,1.498809753721058951e+04,1.494740071731631178e+04,1.492180816182546550e+04,1.488399002527823905e+04,1.489780838668168872e+04,1.487666950802429346e+04,1.484341374994578655e+04,1.482532921727953362e+04,1.479504600056761410e+04,1.477988655774653307e+04,1.475237533366508433e+04,1.473988232794398209e+04,1.472858264889701968e+04,1.471836925531999441e+04,1.474553128987629316e+04,1.473709959819301730e+04,1.472936455672589364e+04,1.472217637281998759e+04,1.470171631554994383e+04,1.469515212160279043e+04,1.468864981110216468e+04,1.468204168289739755e+04,1.467515986109603546e+04,1.465413984016800532e+04,1.464622268649615580e+04,1.463754582080157707e+04,1.462795869093560032e+04,1.460358739548802259e+04,1.459177534069883404e+04,1.457866079849941889e+04,1.460054758703784319e+04,1.458448298610898200e+04,1.455316227961529512e+04,1.453389391525715473e+04,1.449923890849540476e+04,1.447660674460569862e+04,1.443853759976237779e+04,1.444892691261830623e+04,1.442119584296323592e+04,1.437819679315414396e+04,1.433365647830360103e+04,1.428767229558297549e+04,1.429050204677411239e+04,1.424200046713146730e+04,1.419244993668806273e+04,1.419216510372370249e+04,1.414102429399258108e+04,1.408937074833904626e+04,1.403740895808560890e+04,1.403547971100910218e+04,1.398354499432665762e+04,1.393196710836945567e+04,1.388097884635478840e+04,1.388092678951777634e+04,1.383182639118685620e+04,1.378402363344639889e+04,1.373774884470738471e+04,1.374338491856132168e+04,1.370086000949647860e+04,1.367427783864198136e+04,1.363636888172171894e+04,1.360102864626425435e+04,1.358226656731395633e+04,1.360280962421782897e+04,1.359002750882634427e+04,1.358046256077723228e+04,1.357422467374589178e+04,1.357140398115554126e+04,1.357207012935917010e+04,1.357627172711625462e+04,1.358403597510853433e+04,1.359536847742163809e+04,1.357386218366253888e+04,1.359221257183104171e+04,1.362780824867964839e+04,1.365299945039665909e+04,1.369524237902413006e+04,1.374063084404094843e+04,1.373889627178857336e+04,1.379017423954306287e+04,1.384415653336088872e+04,1.390066815273358952e+04,1.392307258144527441e+04,1.398400068785049370e+04,1.404685235104113235e+04
1.577726957914224477e+04,1.578731655171426246e+04,1.579444499530777102e+04,1.579865460995055037e+04,1.579995811417166260e+04,1.579838156824381440e+04,1.579396460691699758e+04,1.578676057388022309e+04,1.577683655109617393e+04,1.580076465051277773e+04,1.573550826687252265e+04,1.575444606783904601e+04,1.573455354047077708e+04,1.569885691013836185e+04,1.567475186695615412e+04,1.563512294896997628e+04,1.564389499482131214e+04,1.560098674540207139e+04,1.557032800903683528e+04,1.552487946177824051e+04,1.547843169185443548e+04,1.548128370212516165e+04,1.543343963175770477e+04,1.538519143284545862e+04,1.533673751154451747e+04,1.533839865417935653e+04,1.529012056847225176e+04,1.524220831236065715e+04,1.519483910492763971e+04,1.519834043612700771e+04,1.515256500096284435e+04,1.512147326251870254e+04,1.507790311362044304e+04,1.503560159497096902e+04,1.504482060099326191e+04,1.501902578940548119e+04,1.498116420895027113e+04,1.494488702642114367e+04,1.492394116281665629e+04,1.489096253937217989e+04,1.487336024391098181e+04,1.489381734535709256e+04,1.487943155123502947e+04,1.485295053550499142e+04,1.484161519323193352e+04,1.483167245602875482e+04,1.482301650195923867e+04,1.480184209927447955e+04,1.479538892065131222e+04,1.478981840829606517e+04,1.478497208114946261e+04,1.478068191067726002e+04,1.477677201498145587e+04,1.477306044599114102e+04,1.476936105321862851e+04,1.475176731598156039e+04,1.474753060959634604e+04,1.474274234076862922e+04,1.473721926303705550e+04,1.473078375584600144e+04,1.472326575913341367e+04,1.475092669409327209e+04,1.474074797134826076e+04,1.472903656546579441e+04,1.470200813231660868e+04,1.468689502702368191e+04,1.466993408162984997e+04,1.463737274013628485e+04,1.460281399866039283e+04,1.458001169207022758e+04,1.459159418664991972e+04,1.455105815424810862e+04,1.452226114215952111e+04,1.447787575669513899e+04,1.443165810234710807e+04,1.443382976346343639e+04,1.438428223403057200e+04,1.433326976658770582e+04,1.428095514487850596e+04,1.427761526013474213e+04,1.422323704168581753e+04,1.420456179544082261e+04,1.414891952391294762e+04,1.409301472102801199e+04,1.403709087041931343e+04,1.403151078454015078e+04,1.397628601963055553e+04,1.392180747235324816e+04,1.386833392668189481e+04,1.385248053627266199e+04,1.380174593645194545e+04,1.375277734641180723e+04,1.371962671491655055e+04,1.372503060341227683e+04,1.368282509463062161e+04,1.364328527918300824e+04,1.362038944679344422e+04,1.358678010826295940e+04,1.357017672536085593e+04,1.359327613045519684e+04,1.358348216304334346e+04,1.357727610337885562e+04,1.357473571798598277e+04,1.357591584241550299e+04,1.358084799325090717e+04,1.358954018215733231e+04,1.360197693186631659e+04,1.358170740774858859e+04,1.360144126027362654e+04,1.363853498879016843e+04,1.367905504105202272e+04,1.372288607499780483e+04,1.371982036390260328e+04,1.376984848314811825e+04,1.382271583735369495e+04,1.387823530292362557e+04,1.388607502154365648e+04,1.394624487458562362e+04,1.402211168910039123e+04
1.579777345110161696e+04,1.582268849416670855e+04,1.583102884991173050e+04,1.583642123079497833e+04,1.583887031752086477e+04,1.583839489796149428e+04,1.583502820264740149e+04,1.582881813280133065e+04,1.581982737263440504e+04,1.579450049853199744e+04,1.578020769748263410e+04,1.579990174356845091e+04,1.573058238608972169e+04,1.574562305722606834e+04,1.572206067158939550e+04,1.568294996613124385e+04,1.564204608125987579e+04,1.564969171754448325e+04,1.561937993788355379e+04,1.557428056559982360e+04,1.552816075873828959e+04,1.548122857355338056e+04,1.548380364005392767e+04,1.543588503200374544e+04,1.538778406692194403e+04,1.533970810691860970e+04,1.534199713756341953e+04,1.529458199155118200e+04,1.524778143717432977e+04,1.520177477825520327e+04,1.517045045198741718e+04,1.517664948208702845e+04,1.513404488830850460e+04,1.509283030305919237e+04,1.505311514771261136e+04,1.502873095706696040e+04,1.504245860996743431e+04,1.502146116555089247e+04,1.498862794386100722e+04,1.497124847660117666e+04,1.494201287453449913e+04,1.492823937877785647e+04,1.490250116203044308e+04,1.489215940010361373e+04,1.488341489982660278e+04,1.487616769621052663e+04,1.487030008927267045e+04,1.490211322962853592e+04,1.489857781082610018e+04,1.489597663241846021e+04,1.489413331946346443e+04,1.489286086800612975e+04,1.489196349868923426e+04,1.489123861545679392e+04,1.489047885113130906e+04,1.488947418058596668e+04,1.488801408136379905e+04,1.488588972092900076e+04,1.488289614927716320e+04,1.487883447539064218e+04,1.487351400600335910e+04,1.485310257664814708e+04,1.484474322944582673e+04,1.483462418823415646e+04,1.482260757494519930e+04,1.479489522487288923e+04,1.477875656925179646e+04,1.474670662152397563e+04,1.472613200696848799e+04,1.473965970948187169e+04,1.470076425520912744e+04,1.467325407499907305e+04,1.462980313051296980e+04,1.458413655261104577e+04,1.458646738778872532e+04,1.453665694144368172e+04,1.448495616076493752e+04,1.443152021131638321e+04,1.442661704559426289e+04,1.437023444680692046e+04,1.429894190218893345e+04,1.429058871314179851e+04,1.423137542975918041e+04,1.417172879253511201e+04,1.414828455363865942e+04,1.408851301143094315e+04,1.402912377664566156e+04,1.402047132173829596e+04,1.394894357144925743e+04,1.389233615815883968e+04,1.388736858325815410e+04,1.383402923736255616e+04,1.378273283096245723e+04,1.373373002757856739e+04,1.373739462970694876e+04,1.369369926003739238e+04,1.365297266508470057e+04,1.362920114028238459e+04,1.359500482575997012e+04,1.357811403216107283e+04,1.360122888494457584e+04,1.359169951895493432e+04,1.358601387019967660e+04,1.358423253482309519e+04,1.358639081813453231e+04,1.359249855632887920e+04,1.360254016103001777e+04,1.358006719716690714e+04,1.359778211735971854e+04,1.363302880825739703e+04,1.367186879064745153e+04,1.370046760047893622e+04,1.374614302350161597e+04,1.374481133006399614e+04,1.379661016479763202e+04,1.385117142623692052e+04,1.387187104400483076e+04,1.393123873972595902e+04,1.399268047374277376e+04
1.582858127060849802e+04,1.584122065727235167e+04,1.585091669149583322e+04,1.587126294270768994e+04,1.587503237249486847e+04,1.587584189874576987e+04,1.587371681811625604e+04,1.586869806933784275e+04,1.584723867325292667e+04,1.583662799377591000e+04,1.582334402139979647e+04,1.579385855535371229e+04,1.577557141716050683e+04,1.579144045475198072e+04,1.571856222896996769e+04,1.573022552384299343e+04,1.568997760626988020e+04,1.564806682415347314e+04,1.561837598287130822e+04,1.562385605053009931e+04,1.557822771576003288e+04,1.553176792788502644e+04,1.548469767489042715e+04,1.548735999242606340e+04,1.543974262376755360e+04,1.539217741902172565e+04,1.534487946713485871e+04,1.534821506406675326e+04,1.530208278674108442e+04,1.527047509852339863e+04,1.522630000879161526e+04,1.518334128696873086e+04,1.519188810315245064e+04,1.515183176412066678e+04,1.512707114625078975e+04,1.509040592894772999e+04,1.506924040537732071e+04,1.503628491944854613e+04,1.501895720367436297e+04,1.503999530424346449e+04,1.502653112497020629e+04,1.500135471782114473e+04,1.499170580679480918e+04,1.498386639779023244e+04,1.497774671541835414e+04,1.497323656558521907e+04,1.497020631140115438e+04,1.496850805152137764e+04,1.495430203100235667e+04,1.496843299766466953e+04,1.496968231744601508e+04,1.497151945537561551e+04,1.497372918329606182e+04,1.497608866891331854e+04,1.497836970185957034e+04,1.498034099626881653e+04,1.498177054776245495e+04,1.498242802198595018e+04,1.498208715131544159e+04,1.498052811606842442e+04,1.497753988651020336e+04,1.497292250215372769e+04,1.495281566387889325e+04,1.494440291804395383e+04,1.493385088099163841e+04,1.492102474053201149e+04,1.489211314187888638e+04,1.487443498060083948e+04,1.489061796719106496e+04,1.485409478509196197e+04,1.482863232353029889e+04,1.478689353402491543e+04,1.474257138624845538e+04,1.474588840355086722e+04,1.469662775385120767e+04,1.464505212905310327e+04,1.459130401523338514e+04,1.458567204924661200e+04,1.452807364464711281e+04,1.446886059273107094e+04,1.444464647544562467e+04,1.438284454557450954e+04,1.432016268645692617e+04,1.429324602941371268e+04,1.422957213172790944e+04,1.420229071079398273e+04,1.413880131621632609e+04,1.407589553266612347e+04,1.405027924355489085e+04,1.398939372814583476e+04,1.393000553059868980e+04,1.387240799176713335e+04,1.385324500422808342e+04,1.380002331994241104e+04,1.374941134392819367e+04,1.375183953100955114e+04,1.372089001836252282e+04,1.367955610420950688e+04,1.364169467562955106e+04,1.362125459693677840e+04,1.359084208178165136e+04,1.357813815938483458e+04,1.356944365444497089e+04,1.360119095575017855e+04,1.360068339319687220e+04,1.360431112607844989e+04,1.357566183425788768e+04,1.358745214042867883e+04,1.360323702860600315e+04,1.363672822127045947e+04,1.367397228377335705e+04,1.370112512789329048e+04,1.374549679382922477e+04,1.374299646875043982e+04,1.379373969842548831e+04,1.384734722779376898e+04,1.390358987074065953e+04,1.392576958391477820e+04,1.398647781846649013e+04
1.584268331785421469e+04,1.587043162681240938e+04,1.588164407198238769e+04,1.588988970119546866e+04,1.589515255845233332e+04,1.589743224312737584e+04,1.589674449628984439e+04,1.589312166038664873e+04,1.588661300068182754e+04,1.587728487828088691e+04,1.585161324134416645e+04,1.583692618445251719e+04,1.581972281971518532e+04,1.578651029331827885e+04,1.580120038546415162e+04,1.572718674891910632e+04,1.573787482219576486e+04,1.569675330999196740e+04,1.565411347945863963e+04,1.562385817534627859e+04,1.562895960621346603e+04,1.558312459658060106e+04,1.553666105842639809e+04,1.548980231374804862e+04,1.549292046753093018e+04,1.544597914737561950e+04,1.539933474282498355e+04,1.535320855368234334e+04,1.532152329558273777e+04,1.532718881802647957e+04,1.528391334508464206e+04,1.524194435511867050e+04,1.520144311984872911e+04,1.517627912161321728e+04,1.518930041245213943e+04,1.515408436905971030e+04,1.513447993160915212e+04,1.510324170657075592e+04,1.508775310455876752e+04,1.507435631166037638e+04,1.504935596871998860e+04,1.504011791594600072e+04,1.503288874900611700e+04,1.502759407534167985e+04,1.502413654940220295e+04,1.502239666978106834e+04,1.502223380600794917e+04,1.502348744749289472e+04,1.502597866471772431e+04,1.502951177045691293e+04,1.503387616660457570e+04,1.503884836011452717e+04,1.504419412964547519e+04,1.504967082277045120e+04,1.506872717240123893e+04,1.507372068652525195e+04,1.507809047975161229e+04,1.508158474489054061e+04,1.508395589191620820e+04,1.508496313773415750e+04,1.508437505545094609e+04,1.508197205740356003e+04,1.507754878668038873e+04,1.507091639260557713e+04,1.504821345795644447e+04,1.503668329824719694e+04,1.502249944413872436e+04,1.504198006141642691e+04,1.502215688534511719e+04,1.498581610528350575e+04,1.494653878109416110e+04,1.490433685986380442e+04,1.487299743229176966e+04,1.487521645071654348e+04,1.482462773198646028e+04,1.477143335645081243e+04,1.475220993704715511e+04,1.469423075337728369e+04,1.463417027633354883e+04,1.457225305496194051e+04,1.454508728652735590e+04,1.448014027487824205e+04,1.445052370253947447e+04,1.438365812131427811e+04,1.430256997145785135e+04,1.428519467409292702e+04,1.420407563221102464e+04,1.418730933981409180e+04,1.412118812194015482e+04,1.404249490870069712e+04,1.402910815011124942e+04,1.395365355270242435e+04,1.389401206682759221e+04,1.388690961453810451e+04,1.383234103922476061e+04,1.378072576647435199e+04,1.373230416734644677e+04,1.373743105635262327e+04,1.369605957128608134e+04,1.367223281970262178e+04,1.363863545522207278e+04,1.362288206599440309e+04,1.359753436442051316e+04,1.359023278745534481e+04,1.358722476416718564e+04,1.358852150725570391e+04,1.359410491323232418e+04,1.360392794705173583e+04,1.363171745052785263e+04,1.364978465335135115e+04,1.368555751591490116e+04,1.372509158791613299e+04,1.371815410894353408e+04,1.375092997754836688e+04,1.380069795953406719e+04,1.385341926693989080e+04,1.387243927084497409e+04,1.393026468155439943e+04,1.399026503272648552e+04
1.585403311470363406e+04,1.588342561203677906e+04,1.589629724045921466e+04,1.586973145755750011e+04,1.587664800627654768e+04,1.588057509838198894e+04,1.588151725895202253e+04,1.587949652587118908e+04,1.587455289698319393e+04,1.590321989065277739e+04,1.589259920036760741e+04,1.587927916563302279e+04,1.584976704394666012e+04,1.583142130160264787e+04,1.579713491837441688e+04,1.577436174146292615e+04,1.573597060377200251e+04,1.574594041849588393e+04,1.570421484241401777e+04,1.567478674581757514e+04,1.563060626729851356e+04,1.563564369096409064e+04,1.558992539273027796e+04,1.554379368146616616e+04,1.549749335258759675e+04,1.550143403509820928e+04,1.546914623204365489e+04,1.542383365616441006e+04,1.537929665993785602e+04,1.533575063665473135e+04,1.534354064607148757e+04,1.530260040111775743e+04,1.527687930768312071e+04,1.523925432242389070e+04,1.520347761047122185e+04,1.518339374704301008e+04,1.520184914268809371e+04,1.518596723142021801e+04,1.517229437855319702e+04,1.514722908161225496e+04,1.513802518185556983e+04,1.513101958136542817e+04,1.512615797816985287e+04,1.512336068421194796e+04,1.512252319465874461e+04,1.512351701353539829e+04,1.512619073047995334e+04,1.513037134071422042e+04,1.513586579768839874e+04,1.514246278530909331e+04,1.514993469423495117e+04,1.517167371923066094e+04,1.518016608053585514e+04,1.518877531626319978e+04,1.519723157997653470e+04,1.516879752265900606e+04,1.517610730623532436e+04,1.518244373015934252e+04,1.518753812555395416e+04,1.519112895506795030e+04,1.519296457160895807e+04,1.519280590748667601e+04,1.519042906643191236e+04,1.518562779174660682e+04,1.517821578491403488e+04,1.520449045815810678e+04,1.519135695614802535e+04,1.517518673693484743e+04,1.514227275173141970e+04,1.511981599649699638e+04,1.508050820474294596e+04,1.503797880421637092e+04,1.504240947641595267e+04,1.499359285855581402e+04,1.494175702034038841e+04,1.488703322563064285e+04,1.487968156103402725e+04,1.481965646510940860e+04,1.474358686593780294e+04,1.472921196967779542e+04,1.464915762183658080e+04,1.458122500553046120e+04,1.454841134722763672e+04,1.447820627652559779e+04,1.444377524792522308e+04,1.437260586467891699e+04,1.428777319270509179e+04,1.425345878450499731e+04,1.418348028514900943e+04,1.415101529957129969e+04,1.408357394397503231e+04,1.405436657200616901e+04,1.399082965175012941e+04,1.392976341943856096e+04,1.387146539128612494e+04,1.385257222312287195e+04,1.380058239440448233e+04,1.375213735289828037e+04,1.372125922789436299e+04,1.373065729747575824e+04,1.369408146270163707e+04,1.367549047546985094e+04,1.364751680315070553e+04,1.363773319178764359e+04,1.363242275105684530e+04,1.363159604918758851e+04,1.363523230541113298e+04,1.364327984755570651e+04,1.366940970941566047e+04,1.368602190186775988e+04,1.372043504702299833e+04,1.374507386418254464e+04,1.373700686626639799e+04,1.378260115155932726e+04,1.383146914189550444e+04,1.388336826683481922e+04,1.388790193834921229e+04,1.394504409723152639e+04,1.400438863135635620e+04
1.587659889943289454e+04,1.589415030315256445e+04,1.587234244098476483e+04,1.588406590857953415e+04,1.589282340028020553e+04,1.589858888301701518e+04,1.590135401960657327e+04,1.590112891898755333e+04,1.589794272470727446e+04,1.589184402788925217e+04,1.588290109286757070e+04,1.587120188582106493e+04,1.589330643674894236e+04,1.587639752176357433e+04,1.584350560911721550e+04,1.582201356708677486e+04,1.578485961857158691e+04,1.579599052445087000e+04,1.571888747420991422e+04,1.572692740558137302e+04,1.568371595972243813e+04,1.563955755743753980e+04,1.564484611526670051e+04,1.559956366097443970e+04,1.555409305721244891e+04,1.552235615601224708e+04,1.547730788825449417e+04,1.548293153510923730e+04,1.543927284335350851e+04,1.539664834783659899e+04,1.536894812135922257e+04,1.532906433432159247e+04,1.534094860805253848e+04,1.530454224311979488e+04,1.528375025682942942e+04,1.525140917101738160e+04,1.523493637346010655e+04,1.522074336674119695e+04,1.519520525058626663e+04,1.518571013943263097e+04,1.517856855432392331e+04,1.517375126869720407e+04,1.517120159900598810e+04,1.517083569339412497e+04,1.517254310019910918e+04,1.517618761394132162e+04,1.518160839348068112e+04,1.518862134408118436e+04,1.519702075224978034e+04,1.522026845121185761e+04,1.523075618124127504e+04,1.524190393887748360e+04,1.525344015392320580e+04,1.527874508513257024e+04,1.529021558369806735e+04,1.530120918090897612e+04,1.532505623508940334e+04,1.533421834766544634e+04,1.534202232867671410e+04,1.534818542929497198e+04,1.535243532109155785e+04,1.535451300119963707e+04,1.535417559458239703e+04,1.535119902431697119e+04,1.534538052195261116e+04,1.533654095145422616e+04,1.532452692197455326e+04,1.529560065675229998e+04,1.527690629401922342e+04,1.524111173492713715e+04,1.520180392504890915e+04,1.517271278844366316e+04,1.517655788764555473e+04,1.512692153446449083e+04,1.507398457333791885e+04,1.505433604593723430e+04,1.499518738901504548e+04,1.493323641334110289e+04,1.486871043625121820e+04,1.483823140307504218e+04,1.476926081963515026e+04,1.473492483276964049e+04,1.464899634198285639e+04,1.457565491043092334e+04,1.453791638445682474e+04,1.444961658246148727e+04,1.442512217875450733e+04,1.433711289822042454e+04,1.429992459171064547e+04,1.422737091125381994e+04,1.419269372386526084e+04,1.412338563112981501e+04,1.404253953126852866e+04,1.402804167376679834e+04,1.395252421415253775e+04,1.389385489442505059e+04,1.388874690998697770e+04,1.383716229387765634e+04,1.378947976237247349e+04,1.374589027595135849e+04,1.372036748674753471e+04,1.373559413374718861e+04,1.371896005556336604e+04,1.369323113503548666e+04,1.368586474613822065e+04,1.368315399119930225e+04,1.368507435727180564e+04,1.369156849117411184e+04,1.370254703937930753e+04,1.373161819623521296e+04,1.375119500194909051e+04,1.373837153787407442e+04,1.377954032871802337e+04,1.382429887586392579e+04,1.387240896890140721e+04,1.387352728023065720e+04,1.392753352770314086e+04,1.398405689926914056e+04,1.404279523400228936e+04
1.588353081661544275e+04,1.590298110270276084e+04,1.588310339265674702e+04,1.589681691140285693e+04,1.592125327053843648e+04,1.592904776842091815e+04,1.593383326799224596e+04,1.593560622552386485e+04,1.593438321331501356e+04,1.593020147479194566e+04,1.592311927593991277e+04,1.589955790961725870e+04,1.588694497187336674e+04,1.587173497843704536e+04,1.589051540101601859e+04,1.587050882123445626e+04,1.583478844921264681e+04,1.579712267274549231e+04,1.577140421020181384e+04,1.573055097176833078e+04,1.573856259819600382e+04,1.569546694916812703e+04,1.565162026664864970e+04,1.562097288516766275e+04,1.562653967355567147e+04,1.558208437176988809e+04,1.553793836977999308e+04,1.549436044812228647e+04,1.550176893455846584e+04,1.547371081659852643e+04,1.543337001240107929e+04,1.539453395181774977e+04,1.537107423763949191e+04,1.533585827128353412e+04,1.535284480589395389e+04,1.533551639001726289e+04,1.532049803608912043e+04,1.529426376185132540e+04,1.528410169205506099e+04,1.527641889520265977e+04,1.527121558168213232e+04,1.526846272357547423e+04,1.525444946511939634e+04,1.527004613550534123e+04,1.527417931007291190e+04,1.528035817600553855e+04,1.528841293879755540e+04,1.529814881585419062e+04,1.532297199772117892e+04,1.533540570428961655e+04,1.534880555947864195e+04,1.532640481787201134e+04,1.534086261916969670e+04,1.536909613974776585e+04,1.538346024267771281e+04,1.539730346137986635e+04,1.542395713960795547e+04,1.543582397120009409e+04,1.544622918006865075e+04,1.546848004746009246e+04,1.547507160890384694e+04,1.547932815151775139e+04,1.548098893456716905e+04,1.547981308537928271e+04,1.547558229508751538e+04,1.545449400753783993e+04,1.544361050944356248e+04,1.542917947387602180e+04,1.539746013216581196e+04,1.537566977778036380e+04,1.533645983794610947e+04,1.534361354511202080e+04,1.529689737091481220e+04,1.524650588638152112e+04,1.519254928606789326e+04,1.518528831669138162e+04,1.512463250519437133e+04,1.504724161224160343e+04,1.503082067259575706e+04,1.494802959271686268e+04,1.487664511018103804e+04,1.483970362902979832e+04,1.475098784339695703e+04,1.472482704738710891e+04,1.463394539520749822e+04,1.459264185115179862e+04,1.450104524868977023e+04,1.442345309353322955e+04,1.438288469925033860e+04,1.429324741217010887e+04,1.426890375393891009e+04,1.418257086029063794e+04,1.414855438561772462e+04,1.408068138780040317e+04,1.405214959311514394e+04,1.399039606119206292e+04,1.393218717349335202e+04,1.387778353037836496e+04,1.387751557840139139e+04,1.383139884038799210e+04,1.378970125406704028e+04,1.375255621124149184e+04,1.373388918371326872e+04,1.371998096731258556e+04,1.374724150530426414e+04,1.374292864693491720e+04,1.374340552600924275e+04,1.374860799244308146e+04,1.372204010345594725e+04,1.373632942181918770e+04,1.376871824638010003e+04,1.379148853477212833e+04,1.383193169195740484e+04,1.387604167632784811e+04,1.387347966583698872e+04,1.392413830126906396e+04,1.397763189673351008e+04,1.403365367426245939e+04,1.404173564951794106e+04
1.588884012254068512e+04,1.587382279566719080e+04,1.589251116421647021e+04,1.592203606782024144e+04,1.593500110744390986e+04,1.594500004880304914e+04,1.595199372209171997e+04,1.596959549110810622e+04,1.597054382565544802e+04,1.596849175123882014e+04,1.594985870519265882e+04,1.594197471725969808e+04,1.593130016416791477e+04,1.590428697018983075e+04,1.588840918710138067e+04,1.587015020655904664e+04,1.588612327489332529e+04,1.584999454872854403e+04,1.582569423129977076e+04,1.578620065018959576e+04,1.579551120772340801e+04,1.575362083404825535e+04,1.572453725415436202e+04,1.568131927051054663e+04,1.563783131271885941e+04,1.564449319208986708e+04,1.560131723109647282e+04,1.557233041821236839e+04,1.553056649787543574e+04,1.548987490861123661e+04,1.550065978833896224e+04,1.547647451535245636e+04,1.544046649565894040e+04,1.542003942605061457e+04,1.538811907046017586e+04,1.537211936156087904e+04,1.534485092829569476e+04,1.533374677832983434e+04,1.532519252864804002e+04,1.531922170710761566e+04,1.535230367458699038e+04,1.535147613069316139e+04,1.535315454631493776e+04,1.532077123174615554e+04,1.532714715231338050e+04,1.533566508399587474e+04,1.534614798976463499e+04,1.537206980713436496e+04,1.538585912851628382e+04,1.540093116718388046e+04,1.543066671617908287e+04,1.544748538428102620e+04,1.547833877228375059e+04,1.549568817382105044e+04,1.547630935035829316e+04,1.549283238529908704e+04,1.552212935706728604e+04,1.553654686692476389e+04,1.554940883983168169e+04,1.557403038631592062e+04,1.558283741818965063e+04,1.558916103440333973e+04,1.559272370456892531e+04,1.559326876053030719e+04,1.559056327209912706e+04,1.558440071293679648e+04,1.557460338784434134e+04,1.554739991879338049e+04,1.552994112280954141e+04,1.549485654663789319e+04,1.546943399727068027e+04,1.547640796341418172e+04,1.542931217732842197e+04,1.537828716232837178e+04,1.532344742180895992e+04,1.530137546053141705e+04,1.523933219624086632e+04,1.517402187664591474e+04,1.514209558472945355e+04,1.507095275667493115e+04,1.503378069146757480e+04,1.494434994413729873e+04,1.490327137084500282e+04,1.482428419406124158e+04,1.473062132410905906e+04,1.468643146064062603e+04,1.459189851136488141e+04,1.454770866781391669e+04,1.445397267761646071e+04,1.442515734949818579e+04,1.433396093186803046e+04,1.429474218545167241e+04,1.422135243675010861e+04,1.418701285502506653e+04,1.411923927670813282e+04,1.404108915167962550e+04,1.403041778117502690e+04,1.397354166638004244e+04,1.392084905811864883e+04,1.387254808681414579e+04,1.387891627758313552e+04,1.383992196734846220e+04,1.381948648307778058e+04,1.379025001348211663e+04,1.377971113707256154e+04,1.377413203961815452e+04,1.377347732948788325e+04,1.377767507392427069e+04,1.378661787153937621e+04,1.380016425591675215e+04,1.383189243709584116e+04,1.385411630552113638e+04,1.389406529234361369e+04,1.388760509629864828e+04,1.393474743061797926e+04,1.398504258532988024e+04,1.403818172592471819e+04,1.404368489303259412e+04,1.410150100182372262e+04
1.589294589982990874e+04,1.588005616549440310e+04,1.590097001960902708e+04,1.593279896196039044e+04,1.594811118581477785e+04,1.597412534305400914e+04,1.598352007289265748e+04,1.598988493001859752e+04,1.599320608389974223e+04,1.599349277870552032e+04,1.599077797621229547e+04,1.598511874649956007e+04,1.597659639469144167e+04,1.595168767997645773e+04,1.593779080642806366e+04,1.592141940388770308e+04,1.588909818452378386e+04,1.586833784944011131e+04,1.588211368274866254e+04,1.584414596365866601e+04,1.581838497815220035e+04,1.577785022859915625e+04,1.573641608272053418e+04,1.574450483181816526e+04,1.570214295944100013e+04,1.567339087672356982e+04,1.563126041091032675e+04,1.563977985243027797e+04,1.559899953707095119e+04,1.557292075862491038e+04,1.553456866685007117e+04,1.549777464863055502e+04,1.547646009611597401e+04,1.549360603610536782e+04,1.547644128402989008e+04,1.544801908389208256e+04,1.543568634965180536e+04,1.542592654759599827e+04,1.541880973735806765e+04,1.540073648121932638e+04,1.539899181300221244e+04,1.539990788956920733e+04,1.540342647939830204e+04,1.542310294970567338e+04,1.543153012214382761e+04,1.544219496053567855e+04,1.546852357505410328e+04,1.548309756757892319e+04,1.549927690342831193e+04,1.548028865251917159e+04,1.549882464769747457e+04,1.553178791492825258e+04,1.555152640116427210e+04,1.558501111884808051e+04,1.561822437811407144e+04,1.563726385227814899e+04,1.561886645652659354e+04,1.563562685180193512e+04,1.565074824014469050e+04,1.567755274186935276e+04,1.568840245328322635e+04,1.569663453895162093e+04,1.570195580308610806e+04,1.570409483633475611e+04,1.570280506611117744e+04,1.569786758603237104e+04,1.568909373377432348e+04,1.567632738907827297e+04,1.564580237128469162e+04,1.562474085203587310e+04,1.563588298003925593e+04,1.559266716050595278e+04,1.554521338794319308e+04,1.549360156143270433e+04,1.548807363401819021e+04,1.542850934547613724e+04,1.535157256513831089e+04,1.533493272974540014e+04,1.525125910667117569e+04,1.517830318342737155e+04,1.513914676326749031e+04,1.504756556250705034e+04,1.500421371842728695e+04,1.492285732765070861e+04,1.487680460339554702e+04,1.477995354070531903e+04,1.473292718988435809e+04,1.463595028629183071e+04,1.458969912384427153e+04,1.449435140674869763e+04,1.445063229707442224e+04,1.437235981422700570e+04,1.428271223555257893e+04,1.424587973047757987e+04,1.417573073980584741e+04,1.414540500640167738e+04,1.408241952471766854e+04,1.402349838979079504e+04,1.401895869225694332e+04,1.396887906779299374e+04,1.392352138973315596e+04,1.388302521554843406e+04,1.389766285275405971e+04,1.388093682232539868e+04,1.386932161643228028e+04,1.384911679176855250e+04,1.384767471975419903e+04,1.385121099480270641e+04,1.387331461083106115e+04,1.388643019056812045e+04,1.390406894359094440e+04,1.388955607286898885e+04,1.392925863612157991e+04,1.397271914388908772e+04,1.401965072724476340e+04,1.401967472055947292e+04,1.407259479932184331e+04,1.412800040402059676e+04,1.418553963557616225e+04
1.589627973904862301e+04,1.588562820473522879e+04,1.592255905064532999e+04,1.594316607067154837e+04,1.597461645694411709e+04,1.598955291582812788e+04,1.600152018808369758e+04,1.602406844242941588e+04,1.602996129084096174e+04,1.603278869599787868e+04,1.603256836928852135e+04,1.602934361697701388e+04,1.602318359141718247e+04,1.600058673068485223e+04,1.598887643262444180e+04,1.597459363947898964e+04,1.594428498256491730e+04,1.592540275418991223e+04,1.589087215112353442e+04,1.586824561752800946e+04,1.588052642107504653e+04,1.584147441386512946e+04,1.580142627291000099e+04,1.577434836568339961e+04,1.573321685109159444e+04,1.574210138061403995e+04,1.570105924466796569e+04,1.567414752374019008e+04,1.563437960344660678e+04,1.564579735891491873e+04,1.562201539605431026e+04,1.558623353497884818e+04,1.555224251836913754e+04,1.553392900352535071e+04,1.550417510903900256e+04,1.549048442237894051e+04,1.547931811129584094e+04,1.547078466310491785e+04,1.550143534913432086e+04,1.549835987204013509e+04,1.549805747145804344e+04,1.550050567470031092e+04,1.546916389998095110e+04,1.547689088517654454e+04,1.548709077510639327e+04,1.549960686681760126e+04,1.552792270553318667e+04,1.554449167768799816e+04,1.557636459530255524e+04,1.559601071780853090e+04,1.563036660404247232e+04,1.565191633773985086e+04,1.563738234490432660e+04,1.567309426604342298e+04,1.569491652522259392e+04,1.572975254693880561e+04,1.574999147370280116e+04,1.573237598880770383e+04,1.579966510354509228e+04,1.577825544146646280e+04,1.579092513874112046e+04,1.580085867381838034e+04,1.582139289097877918e+04,1.582495739332112134e+04,1.582493133265560027e+04,1.582108435086393729e+04,1.579958040744831669e+04,1.578753966208104976e+04,1.577118953463586513e+04,1.573678155731951119e+04,1.574805556073421030e+04,1.571834817065921379e+04,1.567061043237030390e+04,1.561850775680420338e+04,1.559860849697177764e+04,1.553812860477657523e+04,1.547376199799869210e+04,1.544216821185659501e+04,1.537069858616183046e+04,1.533257551389071159e+04,1.524156026766219293e+04,1.519825239464503829e+04,1.510274528730299789e+04,1.501932344912103144e+04,1.497109571619456983e+04,1.487203084480363759e+04,1.482272299831543933e+04,1.472347797214466846e+04,1.467491176192063722e+04,1.457731470439894474e+04,1.453131833423237549e+04,1.443715778667310951e+04,1.439549958413673448e+04,1.432021883578924462e+04,1.428449939901210018e+04,1.420218349196395138e+04,1.418761138106603175e+04,1.412705492565769237e+04,1.407095514728533453e+04,1.401953138993631001e+04,1.402304628853945178e+04,1.398150581780623179e+04,1.394507898502715398e+04,1.392759385831037071e+04,1.390158439161450951e+04,1.389456438477302436e+04,1.389271178642651648e+04,1.389593530843206099e+04,1.390410502606738009e+04,1.393082802608472412e+04,1.394837207070758450e+04,1.398400484902708558e+04,1.402370072306573275e+04,1.405352684254880296e+04,1.405034300385066308e+04,1.410048768830182962e+04,1.415342657121480443e+04,1.417236901291325921e+04,1.422975812141026836e+04
1.589928109404118732e+04,1.589096655919207842e+04,1.593036945515137631e+04,1.595354375746214646e+04,1.598765065071123536e+04,1.601889195823494811e+04,1.603361178042856045e+04,1.604532057869460550e+04,1.605396740338098607e+04,1.602302774855648750e+04,1.602549461225062259e+04,1.602490945272272802e+04,1.602132738365390105e+04,1.605131120619029389e+04,1.604198895646326127e+04,1.602999232357536675e+04,1.600188607561960816e+04,1.598506665741105098e+04,1.595250450905421167e+04,1.593170690106693655e+04,1.589562321288970998e+04,1.587184960952654365e+04,1.588342195375249139e+04,1.584411163083306747e+04,1.580428900367498863e+04,1.577794116141338600e+04,1.573805165873799706e+04,1.574872084890800761e+04,1.572359786239816458e+04,1.568588578927452909e+04,1.564944555623832275e+04,1.562823156379914144e+04,1.564529269602245768e+04,1.562787634391416213e+04,1.559910609850354376e+04,1.558635841405866086e+04,1.557617412341322051e+04,1.556867089677113108e+04,1.555030689778673695e+04,1.554838997956292587e+04,1.554930579177048639e+04,1.555303603198047495e+04,1.557316209032404004e+04,1.558233195973350666e+04,1.559405068173454492e+04,1.562176156756395358e+04,1.563808292335510487e+04,1.561988620687255752e+04,1.563986219302343670e+04,1.567493744798796251e+04,1.569751192200990045e+04,1.573453427857233328e+04,1.572193456496973522e+04,1.579601428202897660e+04,1.578322942650568439e+04,1.581993178801241447e+04,1.584199278653817601e+04,1.587627139836427523e+04,1.589517289803444874e+04,1.587543230724200839e+04,1.588965065603968105e+04,1.590103122897987487e+04,1.592292039687771467e+04,1.592769262725109002e+04,1.592873713871891960e+04,1.592581366907546180e+04,1.591871473273998708e+04,1.589361514569673454e+04,1.587770002156501869e+04,1.589366473643787322e+04,1.586849053503232426e+04,1.582508070591828437e+04,1.577704670675357920e+04,1.572447338546835817e+04,1.570392400259675924e+04,1.564263754931604490e+04,1.562739510345502640e+04,1.554458578899648273e+04,1.547186448760086205e+04,1.543234130940277828e+04,1.533981239997566445e+04,1.529488297961812350e+04,1.519768013767470256e+04,1.514892855649447301e+04,1.504875336478432291e+04,1.499793424307688838e+04,1.489661680142421392e+04,1.484559190993191442e+04,1.474502368013840169e+04,1.469569396803784184e+04,1.459775782751999213e+04,1.455199367228569463e+04,1.447224317296294612e+04,1.443176770692213904e+04,1.434444603011573781e+04,1.427450632817373844e+04,1.424491802556061884e+04,1.418323523357693921e+04,1.417622614920543856e+04,1.412391941654944094e+04,1.407661424085107865e+04,1.403445000021820306e+04,1.404769309881681693e+04,1.402982282539515290e+04,1.400362821253237780e+04,1.399647512077825377e+04,1.399460114747620537e+04,1.399790324410246103e+04,1.401992954171856400e+04,1.403312877218017820e+04,1.405096640447105165e+04,1.403673220932477852e+04,1.407675103510520421e+04,1.412054411527252523e+04,1.415411246026208391e+04,1.420450110580903129e+04,1.422116903726561577e+04,1.427662110857359949e+04,1.428393152374884812e+04
1.590239296374988044e+04,1.589650042330365977e+04,1.593847712598103681e+04,1.597797492413179134e+04,1.600123012367382762e+04,1.603533335467457073e+04,1.605295071241012192e+04,1.603106526627950370e+04,1.604261339188838610e+04,1.605106586129151401e+04,1.607005836768911104e+04,1.607229668070178013e+04,1.607146929882647237e+04,1.605399363509489922e+04,1.604727585878784885e+04,1.603778747572310385e+04,1.602568218534337939e+04,1.604761191948139458e+04,1.603079971420779475e+04,1.599838434094417607e+04,1.597782188518176554e+04,1.594214875736497925e+04,1.591890901169166318e+04,1.588111679861380253e+04,1.589283479670927045e+04,1.585414133528518141e+04,1.582910077370915678e+04,1.579076659530744655e+04,1.580322619334422052e+04,1.572998793044820195e+04,1.574460282874482800e+04,1.572423959554664907e+04,1.569204443735574023e+04,1.567548905291853589e+04,1.564751576643486624e+04,1.563561451604726608e+04,1.562628482134302612e+04,1.561965348553098738e+04,1.565229972590113175e+04,1.565130917780438904e+04,1.565319968690656242e+04,1.562145924266756629e+04,1.562901742302830098e+04,1.563929963050849619e+04,1.565218252478752402e+04,1.568117075028136605e+04,1.569875941272568889e+04,1.573200502683871309e+04,1.575340465688530821e+04,1.578989586945288465e+04,1.577745167960535036e+04,1.580231217643414857e+04,1.584132017440028721e+04,1.588042699042955064e+04,1.586919122174941003e+04,1.589372777408381808e+04,1.593089451059946441e+04,1.595297127609979361e+04,1.598686951242535724e+04,1.601853033801278798e+04,1.603402787290475680e+04,1.604659477242021239e+04,1.601940852596017066e+04,1.602512974645916256e+04,1.602700946697115432e+04,1.602479910672400729e+04,1.601828392173856264e+04,1.604374873452266911e+04,1.602809240464871982e+04,1.599411313560762210e+04,1.596895782366476487e+04,1.592539897679776186e+04,1.587707093618036015e+04,1.587413746458163951e+04,1.580291389216613607e+04,1.579104996462131385e+04,1.572483540860450012e+04,1.564105533729956369e+04,1.560373263869257062e+04,1.552656222063538735e+04,1.548288342081053997e+04,1.538649459994034260e+04,1.533803210676930030e+04,1.523769417452081689e+04,1.518618412273770082e+04,1.508373295498793595e+04,1.503105456337053329e+04,1.492842320719620329e+04,1.487652973514382029e+04,1.477567639342177426e+04,1.472652277964047971e+04,1.462935742399212904e+04,1.458482763203326613e+04,1.449314033222405124e+04,1.441856694157206221e+04,1.438410963270664797e+04,1.430362477156004752e+04,1.429146176596832811e+04,1.423382844154624036e+04,1.418113631457037991e+04,1.418368491916544735e+04,1.414140027437280514e+04,1.411819687653100118e+04,1.408674892773324973e+04,1.407447605876188027e+04,1.405388929080567323e+04,1.405241297829698306e+04,1.406992699628515402e+04,1.407878282017973834e+04,1.409253016663884046e+04,1.412465446755135781e+04,1.414747204534785124e+04,1.418808150377875427e+04,1.418233418325474486e+04,1.423012596137006767e+04,1.428096119151997846e+04,1.428434062598110177e+04,1.434009320311620831e+04,1.439770995804338600e+04
1.586957615455292398e+04,1.590265654644160531e+04,1.594729394199687522e+04,1.598958701678799116e+04,1.602934548885008553e+04,1.605283035950222984e+04,1.603695459814678179e+04,1.606827142030847608e+04,1.608291203712832066e+04,1.609444688156983466e+04,1.610283827131506405e+04,1.612170208453014493e+04,1.612381509943545097e+04,1.612285004625268630e+04,1.611889105993078556e+04,1.609843697658675956e+04,1.608887113222153857e+04,1.607674432190763764e+04,1.604860877277652617e+04,1.603199609314932604e+04,1.604997084722953150e+04,1.602979942231468158e+04,1.599469437352131354e+04,1.597215701016527601e+04,1.593527300182008184e+04,1.589795284354296746e+04,1.587421768792410148e+04,1.588715089120753692e+04,1.585053508771196357e+04,1.582840762466398883e+04,1.579381175700554741e+04,1.577431659574876539e+04,1.579301508141987142e+04,1.572708628172092722e+04,1.574994416457830812e+04,1.573870739527951810e+04,1.573003420108163846e+04,1.572406110484115197e+04,1.572089070423453813e+04,1.572059005080908537e+04,1.572318940952565754e+04,1.572868141592654865e+04,1.573702064369004802e+04,1.574812359081947943e+04,1.572538328002931667e+04,1.579170815806736937e+04,1.577373184998516808e+04,1.579428641381589114e+04,1.583029431867194944e+04,1.585418367305296124e+04,1.589290296984589077e+04,1.588236167024361202e+04,1.592243752219906310e+04,1.594899415687375586e+04,1.598893517176160822e+04,1.602819596586521948e+04,1.605280467873552698e+04,1.603940874262331636e+04,1.607429031174845295e+04,1.609327806553826667e+04,1.612325846063176868e+04,1.613663173441763502e+04,1.614666876613485510e+04,1.615305383789553889e+04,1.616909026351678767e+04,1.615375025430065580e+04,1.614758508853739477e+04,1.613682081556873163e+04,1.612131419698084937e+04,1.608735775953700067e+04,1.604848109484580345e+04,1.601836689802908222e+04,1.601978832017778768e+04,1.595271890900708968e+04,1.589458689286260051e+04,1.588207268893608125e+04,1.580150537120227818e+04,1.573055559845501557e+04,1.569231509061343968e+04,1.565069166087830672e+04,1.556949051459244220e+04,1.547206259686959675e+04,1.542248349575835164e+04,1.532106304660291062e+04,1.526841123144869925e+04,1.520134062481057481e+04,1.509743689789928612e+04,1.504387723467947217e+04,1.494086157038557576e+04,1.488917583606523112e+04,1.478904144207338686e+04,1.474120585567952367e+04,1.464585501278744778e+04,1.460373181470480631e+04,1.452862413500749972e+04,1.444369726384727983e+04,1.442683826553437393e+04,1.435068218964815605e+04,1.429305675346191856e+04,1.429063002789331949e+04,1.424330409471134772e+04,1.420136203777958872e+04,1.417866997639599140e+04,1.419792708038393175e+04,1.418630067613749998e+04,1.418020009632676374e+04,1.417953979103502934e+04,1.418418969395203749e+04,1.419397702229695278e+04,1.417225597631555866e+04,1.419159081456018612e+04,1.422904753372288542e+04,1.427054696529448847e+04,1.430209261056315154e+04,1.430051052599988179e+04,1.435206790797167923e+04,1.441987620878411690e+04,1.442602845618705032e+04,1.448398165929503739e+04
1.587422217393585015e+04,1.592352263015398057e+04,1.597085685379820643e+04,1.600239627772057429e+04,1.604515930867812131e+04,1.603520641609965242e+04,1.607262235988522298e+04,1.609350398645258974e+04,1.612499610392499017e+04,1.613976924673723988e+04,1.615137587261182489e+04,1.617338240233992110e+04,1.617860864929450327e+04,1.618067832977909711e+04,1.617966041046194732e+04,1.617565600880450802e+04,1.616879765628953464e+04,1.614566573302642792e+04,1.613362681574068847e+04,1.611930872235496645e+04,1.608934641802648548e+04,1.607123606787415338e+04,1.603800209634794737e+04,1.605372342535457574e+04,1.603203737081293366e+04,1.599620656558600604e+04,1.597376357285532868e+04,1.593780927034426713e+04,1.590226263553556055e+04,1.588114774532103911e+04,1.589755838485504501e+04,1.587882410986637115e+04,1.584812923723290442e+04,1.583295550773676950e+04,1.581991906347326585e+04,1.579559427858504932e+04,1.578743414203921566e+04,1.578194142793223727e+04,1.577922752480581403e+04,1.577936765747031313e+04,1.578239954624560778e+04,1.578832247747594374e+04,1.579709679880432668e+04,1.582228893594193505e+04,1.583650366593358922e+04,1.585322082977608079e+04,1.588587374790388276e+04,1.587051921258223592e+04,1.589342134041897953e+04,1.593152861425472656e+04,1.597083120989584131e+04,1.599739570188947255e+04,1.603808666688753874e+04,1.602880051336696488e+04,1.606935196355101652e+04,1.609560437362908851e+04,1.613441370961858775e+04,1.617171474918612512e+04,1.619354758144382504e+04,1.617657144829479512e+04,1.619339518241176847e+04,1.622082314621369005e+04,1.623123058132396545e+04,1.623792810765007744e+04,1.624062318274340942e+04,1.623905564236600185e+04,1.623300089922908228e+04,1.622227280048289686e+04,1.619309432747380924e+04,1.617264402573968982e+04,1.618366920115836547e+04,1.613961272838024888e+04,1.609059208908182336e+04,1.603670145305458573e+04,1.602816939183010254e+04,1.595133640315232333e+04,1.588378828265998163e+04,1.584862314406080986e+04,1.577319683883344987e+04,1.573078867753967643e+04,1.563521521529374877e+04,1.558709301331368624e+04,1.548663215003139339e+04,1.543452973007614492e+04,1.533103993474532035e+04,1.527687227454228560e+04,1.517234644112212118e+04,1.510447457512730034e+04,1.505107157919032034e+04,1.494876792769748135e+04,1.489840241438921657e+04,1.480013363362601376e+04,1.471833735769183841e+04,1.467609994138800539e+04,1.458736625491295126e+04,1.455274875378076104e+04,1.448604527194716502e+04,1.442402933613047935e+04,1.440333599914293154e+04,1.435140030454361113e+04,1.431857772168147494e+04,1.427752056807189365e+04,1.429217359890462831e+04,1.427604810387553880e+04,1.425186433385574492e+04,1.424697026179844397e+04,1.424755859535851050e+04,1.425348428083996987e+04,1.427826859576298739e+04,1.429427690060430905e+04,1.427851509405672550e+04,1.430346517208183650e+04,1.434620504902178072e+04,1.439258016772518749e+04,1.444221389188367175e+04,1.444455398633365985e+04,1.449947935327317100e+04,1.457009709393326193e+04,1.457849533457489451e+04
1.588028814308659639e+04,1.593218369740029448e+04,1.598230102668897598e+04,1.603038507231921540e+04,1.602611436385291745e+04,1.606945165067142807e+04,1.609648847151439986e+04,1.613431845351686934e+04,1.616913999617216177e+04,1.618728849192379857e+04,1.620225535044545541e+04,1.617747344488717499e+04,1.618594387616892345e+04,1.619119321003940422e+04,1.619327363035886083e+04,1.619227113120499416e+04,1.618830485303947353e+04,1.618152600173678366e+04,1.617211636073820409e+04,1.619676561363579822e+04,1.618272065386272152e+04,1.615316001960565336e+04,1.613555835337497410e+04,1.610299390135222347e+04,1.608303672218875727e+04,1.604872906297657755e+04,1.602771402275093715e+04,1.604312292828518548e+04,1.602231825609382940e+04,1.598855201852912433e+04,1.596933272607493564e+04,1.593774653003757703e+04,1.592133036538391025e+04,1.589306835578024038e+04,1.588052123366281739e+04,1.587024146044621011e+04,1.589888194979482796e+04,1.589365510375413578e+04,1.589116478407793329e+04,1.589149484312048298e+04,1.589469099723087857e+04,1.590075981098393095e+04,1.587317805560227134e+04,1.588482606078145909e+04,1.589912189492082689e+04,1.592958677059138427e+04,1.594870430593218771e+04,1.598355204145173775e+04,1.602020469956440502e+04,1.604481628644053126e+04,1.603412618094618665e+04,1.607443545250711031e+04,1.610162274759548018e+04,1.614258095540112117e+04,1.618325576195344911e+04,1.617316715180588653e+04,1.619844170032278635e+04,1.623587419286731165e+04,1.627137470743420999e+04,1.629096784442255739e+04,1.632144257011354784e+04,1.633527278542620479e+04,1.634567648783756886e+04,1.635232835876304307e+04,1.631842588496554527e+04,1.635322568371301168e+04,1.634698133130333736e+04,1.633601175357706961e+04,1.632017104822149849e+04,1.628579267888318282e+04,1.624636678028589813e+04,1.620189615266089095e+04,1.620259394965521642e+04,1.614821934365463676e+04,1.608907837835617829e+04,1.602536279743944760e+04,1.599374150241364259e+04,1.592154815046756994e+04,1.588203474384144647e+04,1.578897998401967925e+04,1.574299071882042335e+04,1.564423014953618986e+04,1.559342101287099649e+04,1.549075729185741511e+04,1.543700022186839487e+04,1.533240676033642376e+04,1.527771988318293006e+04,1.517326593755435897e+04,1.511973701845158939e+04,1.505395828049402917e+04,1.495354009023820981e+04,1.486923086337503628e+04,1.482415904876033892e+04,1.473229786741506541e+04,1.469426692012505373e+04,1.462392597407367430e+04,1.459447991592038306e+04,1.453337928096574615e+04,1.447735251253619208e+04,1.442661331691296073e+04,1.443143662592419423e+04,1.439175699715007795e+04,1.437145984629233135e+04,1.434316533569962485e+04,1.433428927994551486e+04,1.433103925364979659e+04,1.433330064182344358e+04,1.434091219129579258e+04,1.435366813714973978e+04,1.438505986762090470e+04,1.442103482001012890e+04,1.444763641072821338e+04,1.444171101107925642e+04,1.448949418955037254e+04,1.454042579246379319e+04,1.459409080271385028e+04,1.459988718099167454e+04,1.467139183643163415e+04,1.473057884975976776e+04
1.588819469984548050e+04,1.594270053524142713e+04,1.599562962967148633e+04,1.604670217646693345e+04,1.604551079247263260e+04,1.609210390844530775e+04,1.613611050060275011e+04,1.617732979750080267e+04,1.620203103730539442e+04,1.618711213200914790e+04,1.621914847915127757e+04,1.623430611183377914e+04,1.624617511786232353e+04,1.626836503756314050e+04,1.627369288730761036e+04,1.627583220019505825e+04,1.627488775107523543e+04,1.627099821481134859e+04,1.625072720905847382e+04,1.624149914394633379e+04,1.622993074368074303e+04,1.620263764130268828e+04,1.618719061492569745e+04,1.617023567824647762e+04,1.618854672527086223e+04,1.616948479288554518e+04,1.613631131376660778e+04,1.610291118300231756e+04,1.608328710415930254e+04,1.605048852594385971e+04,1.603215352018646081e+04,1.605141110288767959e+04,1.603556125544256065e+04,1.602140128680004273e+04,1.599559290045933449e+04,1.598555620448332047e+04,1.597788544405484572e+04,1.597274486168599105e+04,1.597026371608107002e+04,1.597053433736402076e+04,1.597361059768544510e+04,1.597950681674783118e+04,1.598819711689956603e+04,1.599961523741294513e+04,1.602726243393830373e+04,1.604379176735071815e+04,1.602610893380994094e+04,1.604695772270407178e+04,1.608328511320758844e+04,1.612111926087032771e+04,1.614656472657021368e+04,1.618648777579370653e+04,1.617681959045631811e+04,1.620373263785097515e+04,1.624403748342773179e+04,1.628364663886997732e+04,1.632214512495422969e+04,1.634557323236059165e+04,1.633054891002524528e+04,1.634969366043983609e+04,1.637977323365284246e+04,1.639314469695472508e+04,1.640308406087869662e+04,1.642287052134724217e+04,1.642500055525547941e+04,1.642281085877958685e+04,1.640247612009872682e+04,1.639101732451896532e+04,1.637468551257910440e+04,1.633976182101474842e+04,1.634994745718702325e+04,1.631853825170733035e+04,1.626857986758675543e+04,1.620008275828193291e+04,1.619057531027423101e+04,1.612634835800409201e+04,1.604415689891020884e+04,1.602162921714645927e+04,1.593163588095246814e+04,1.588834007892964291e+04,1.579192097917004139e+04,1.574305542736029020e+04,1.564193268927789177e+04,1.558930134048566106e+04,1.548540272786849528e+04,1.543099115385685582e+04,1.532637694638897665e+04,1.527227691099452204e+04,1.516906026835695957e+04,1.510372593319133739e+04,1.505410380617872579e+04,1.497047076432406902e+04,1.487618689584376989e+04,1.483541542969353031e+04,1.474836417468622676e+04,1.472938720300374553e+04,1.465117705278523499e+04,1.459156271821763949e+04,1.458725047809409443e+04,1.453819370631859056e+04,1.449469234627808328e+04,1.447060028011168470e+04,1.443852921567260637e+04,1.442597127116392949e+04,1.441914766689462704e+04,1.445438569123341586e+04,1.442232725834852317e+04,1.443202100996012450e+04,1.444683429051347775e+04,1.448025779280488496e+04,1.451820662421974703e+04,1.454668335303434287e+04,1.459270207824429963e+04,1.459201778606467997e+04,1.464449703254568158e+04,1.469956091029415256e+04,1.472032624794667936e+04,1.477915441763380659e+04,1.483920085459121037e+04
1.589835026637173723e+04,1.596909079374492285e+04,1.602481007405146374e+04,1.602877056873298716e+04,1.608085517556339619e+04,1.613071417219986324e+04,1.617809653255046578e+04,1.617270536696090130e+04,1.620086927685211413e+04,1.623964937218787964e+04,1.627523324133898132e+04,1.629394741224683821e+04,1.632291569186744164e+04,1.633495808337823837e+04,1.634366114682011539e+04,1.634907725207982003e+04,1.635129534979554592e+04,1.635044000079124817e+04,1.634666995453045820e+04,1.634017629327822942e+04,1.633118016415371676e+04,1.631993012642735266e+04,1.629312854868537397e+04,1.627822309225788922e+04,1.624833793102164054e+04,1.623102348713862011e+04,1.619935786963326973e+04,1.618097043683545780e+04,1.619903400955643156e+04,1.618087678803424933e+04,1.614976997855317313e+04,1.613321900903558708e+04,1.610430660663160961e+04,1.609057007125919336e+04,1.607863704067218350e+04,1.606874212868820177e+04,1.604744449054697179e+04,1.604221261719905306e+04,1.603953167252431740e+04,1.603950220536111738e+04,1.604218625479846378e+04,1.604760618551922380e+04,1.606939682442080812e+04,1.608020302836052724e+04,1.609357161177197122e+04,1.612298861726056202e+04,1.614104219092911808e+04,1.617472481399169192e+04,1.619661464137904113e+04,1.618347667156285024e+04,1.622165142517123604e+04,1.624705564587586559e+04,1.628657905850320822e+04,1.632619913640193408e+04,1.635197412504500244e+04,1.634050847702898318e+04,1.637808929502445972e+04,1.640054527658942970e+04,1.643470224513462745e+04,1.645294611059257295e+04,1.648206836901477072e+04,1.649454453560931142e+04,1.650359423329451238e+04,1.647236960680250195e+04,1.647362210132385371e+04,1.647057941765553551e+04,1.649952178420132259e+04,1.648723194013809552e+04,1.647008878919726703e+04,1.643444191303825937e+04,1.639377953396111843e+04,1.634811162793749827e+04,1.634764275553557673e+04,1.629217115553753683e+04,1.623199969167949166e+04,1.620382594734505983e+04,1.613483454356197035e+04,1.604823007066373248e+04,1.602169866154782358e+04,1.592813957155134995e+04,1.588175167203514138e+04,1.578278387940325774e+04,1.573189872667484451e+04,1.562937932728786836e+04,1.557592476853047265e+04,1.547187881417328026e+04,1.540428325391284307e+04,1.535092989516488160e+04,1.524849775474178023e+04,1.519784200907137711e+04,1.509915763629609137e+04,1.505326859348156722e+04,1.497398665633465862e+04,1.488462468976181117e+04,1.484935647814569529e+04,1.478200864229531726e+04,1.471939781832994777e+04,1.469819673449487891e+04,1.464584698509520967e+04,1.459897906754032010e+04,1.457150893467382411e+04,1.458616226525200182e+04,1.457020812874109834e+04,1.454641196195641533e+04,1.454206792410538765e+04,1.454339924273951328e+04,1.455025709849086707e+04,1.457612812259700149e+04,1.459341839399689343e+04,1.457906661863214686e+04,1.461931047211168334e+04,1.464995862837703316e+04,1.469805507127134479e+04,1.474945756780845113e+04,1.475355205247999402e+04,1.482392238517489750e+04,1.488252822734008078e+04,1.489247553720365977e+04,1.495354012649113429e+04
1.592481715753590106e+04,1.598447359569356195e+04,1.604299037590457010e+04,1.604988254455022980e+04,1.611875152154621901e+04,1.617189450848379056e+04,1.617261242840831983e+04,1.622079863350850064e+04,1.625255211093911203e+04,1.629493406913362560e+04,1.633414013159539900e+04,1.631998321216373006e+04,1.633893203306334908e+04,1.635448340163304238e+04,1.638027389495671378e+04,1.638906197180924937e+04,1.639455054247603402e+04,1.639684847233691835e+04,1.639610036275404855e+04,1.639248472279423731e+04,1.638621171180074452e+04,1.637752048117539380e+04,1.635304618955578189e+04,1.634034706831196672e+04,1.632609056804084685e+04,1.634708723207883304e+04,1.633065481299240491e+04,1.630008064261113759e+04,1.628287431323446799e+04,1.625217687249626033e+04,1.623555370250294800e+04,1.621970501908432925e+04,1.619130906956741819e+04,1.617792751200782368e+04,1.620267728829736006e+04,1.619279224349543802e+04,1.618500381557823857e+04,1.617949225872242823e+04,1.617640315301920054e+04,1.617584529488679254e+04,1.617788901718339184e+04,1.618256495935138082e+04,1.618986330279384856e+04,1.619973348142049508e+04,1.617557066842264612e+04,1.619023815032219863e+04,1.622072422419115901e+04,1.623955117799999425e+04,1.627372209437101264e+04,1.629575047546238056e+04,1.633252236627263483e+04,1.632003276331292000e+04,1.634446617194369901e+04,1.638263718256776338e+04,1.642049516061047325e+04,1.644407902008952806e+04,1.648014734316265094e+04,1.650115070008303155e+04,1.648369861277949531e+04,1.650045711353665683e+04,1.652816676229945733e+04,1.653921297614183277e+04,1.654686988449961063e+04,1.655081952826865017e+04,1.655077365995381842e+04,1.654647746196883963e+04,1.653771294141345425e+04,1.652430196164522204e+04,1.649249764233187307e+04,1.646945050962275127e+04,1.647794546881102724e+04,1.643145009348168969e+04,1.638008722464941093e+04,1.632396915732789785e+04,1.629972097944593406e+04,1.623455641678007669e+04,1.620173836098550237e+04,1.612850024235516321e+04,1.603810754665534478e+04,1.599464194874381064e+04,1.589825443721623742e+04,1.584967080364096910e+04,1.579920684407875524e+04,1.569719406568072736e+04,1.564444671086050221e+04,1.554119570992552326e+04,1.548824824368953705e+04,1.538588261716478155e+04,1.533487493189613451e+04,1.523551864811300766e+04,1.518856218297837768e+04,1.509425375956459902e+04,1.505334650420380058e+04,1.497964132407700527e+04,1.489639031648411765e+04,1.488144972772058100e+04,1.482121367872296833e+04,1.475240173130575567e+04,1.475283093758363975e+04,1.472232514572178479e+04,1.468390351288521197e+04,1.465127488654496847e+04,1.463821687351350556e+04,1.463100522489199648e+04,1.462957571319135604e+04,1.463381181817234028e+04,1.464354625231126556e+04,1.467226544078419101e+04,1.469232134861662053e+04,1.473077337979493313e+04,1.472350743216916453e+04,1.477032600802404340e+04,1.482072507672023494e+04,1.487427766194223659e+04,1.488043168039724696e+04,1.493889694688949385e+04,1.499911429927771678e+04,1.502413343119667843e+04,1.508633971468615346e+04
1.594065117610510788e+04,1.600282231115602190e+04,1.602757789464251255e+04,1.608753047280723695e+04,1.614588764962556888e+04,1.620232657111267326e+04,1.622001344088706537e+04,1.627169943575840443e+04,1.632064322158953291e+04,1.635307751446301700e+04,1.634580944999094936e+04,1.638542043851825292e+04,1.642163575009215856e+04,1.644082296596132801e+04,1.647011374816286843e+04,1.648238828724072664e+04,1.649125951293305843e+04,1.649681976004905300e+04,1.649919860432244604e+04,1.649856106231032754e+04,1.649510534591396572e+04,1.648906020097577129e+04,1.648068186447519111e+04,1.647025067942263559e+04,1.644450520710594719e+04,1.643089832603791729e+04,1.640258796047625947e+04,1.638712261273554759e+04,1.637123168708680896e+04,1.634163471152278362e+04,1.632592046665173257e+04,1.634726961413802928e+04,1.633298258429809357e+04,1.631987670982821146e+04,1.629465240395703586e+04,1.628470862121024402e+04,1.627668191736270091e+04,1.627075884792517172e+04,1.625348202536598546e+04,1.625218825847224798e+04,1.625334268699784297e+04,1.627059677941695554e+04,1.627672882828692673e+04,1.628530670027213637e+04,1.629624826471327106e+04,1.632301589100988349e+04,1.633829356466999161e+04,1.631894922814253368e+04,1.633772376904700650e+04,1.637151726093055913e+04,1.639278527608423610e+04,1.642843344146048184e+04,1.645091800963581773e+04,1.648705295604752610e+04,1.647278130325683742e+04,1.649428378123184666e+04,1.652831972184748156e+04,1.654724960887682391e+04,1.657789188905619085e+04,1.659267504339557490e+04,1.661837185807188507e+04,1.662751071496441728e+04,1.663330743772242568e+04,1.663545210204273462e+04,1.663366436646366492e+04,1.662769718565666699e+04,1.660377979386778316e+04,1.658887452654747176e+04,1.656928431694919709e+04,1.653135345056065125e+04,1.648860432725088322e+04,1.649118386840890162e+04,1.643890501279479940e+04,1.638200333588162903e+04,1.632064486852005939e+04,1.629148869256305625e+04,1.622182578429367277e+04,1.618492198369366815e+04,1.609451137960160850e+04,1.605120962805120507e+04,1.596876302266400307e+04,1.587056324095229502e+04,1.582071889204587205e+04,1.571959285469874158e+04,1.565416895552401547e+04,1.560226073070292477e+04,1.550052984775177902e+04,1.544984267378639197e+04,1.535040319414198166e+04,1.530306381400334067e+04,1.522168043394738925e+04,1.517968931948428508e+04,1.509100200341935852e+04,1.501984173453866970e+04,1.498934530554310186e+04,1.492704301274230238e+04,1.486970621688087704e+04,1.485401126246244530e+04,1.482102919985778863e+04,1.478003902879965608e+04,1.474481082081605564e+04,1.472917291464746813e+04,1.471941935730335535e+04,1.475194601411922486e+04,1.475382582077823463e+04,1.472490943061097641e+04,1.473787329435083666e+04,1.476977477858599741e+04,1.479290960289351642e+04,1.483435992081026779e+04,1.488005220316519262e+04,1.487949939333376824e+04,1.493247102924910723e+04,1.498842121760029113e+04,1.504688367153040599e+04,1.507088470747158863e+04,1.513285229400265962e+04,1.519585668567169341e+04,1.522289639181995881e+04
1.597350657769280951e+04,1.603808739122899715e+04,1.605183968353466480e+04,1.612830158452611067e+04,1.618971104355697753e+04,1.619921795616857708e+04,1.627038975430326536e+04,1.632555008260448813e+04,1.632797554832883179e+04,1.637759565284597920e+04,1.642412284558569081e+04,1.645381418886993197e+04,1.649371289421175607e+04,1.648002652393910103e+04,1.649931780290542520e+04,1.652872039517588564e+04,1.654101946217007935e+04,1.654990639922802802e+04,1.656908600788947660e+04,1.657152633560399408e+04,1.657099890919326572e+04,1.655412918381820782e+04,1.654834825545625063e+04,1.654033289627751219e+04,1.653037496367504355e+04,1.651878405956315692e+04,1.649227231915664743e+04,1.647840571870483109e+04,1.650040489099104889e+04,1.648556372124073096e+04,1.647075369937502546e+04,1.644273957273073029e+04,1.642896688822738361e+04,1.640255938193571637e+04,1.639099961264090962e+04,1.638092788631218718e+04,1.637256648249426507e+04,1.635247743754633120e+04,1.634808153789723292e+04,1.634586639799029217e+04,1.634591718800013768e+04,1.634828045584462234e+04,1.635296328214113601e+04,1.637356861220119754e+04,1.638276022945830482e+04,1.639405633439391386e+04,1.642091022067319136e+04,1.643594187897047959e+04,1.645252231216189102e+04,1.648398180643902742e+04,1.650288616406815709e+04,1.648594087906257482e+04,1.651950054953474319e+04,1.653947628678646288e+04,1.657270356400380842e+04,1.659163263493982959e+04,1.662302503762778360e+04,1.663938024822453735e+04,1.665386766341229668e+04,1.662956533612485509e+04,1.663918788838302135e+04,1.664586995631456375e+04,1.664928888117027236e+04,1.664914724590463447e+04,1.664517681820906000e+04,1.663714221504644956e+04,1.662484424591757124e+04,1.664462426411127672e+04,1.662331454379981733e+04,1.658383458333296585e+04,1.653968994642767939e+04,1.649091010865679709e+04,1.648768662673723884e+04,1.642989152985071996e+04,1.635419021185737802e+04,1.633816260027335375e+04,1.625455464930288144e+04,1.618104878804460168e+04,1.614082901640771888e+04,1.604766376698951353e+04,1.600223553513424122e+04,1.591833904807869112e+04,1.586939959591618390e+04,1.576938901586257271e+04,1.571893713658308843e+04,1.561844317057475564e+04,1.556855486811956507e+04,1.546968186356019578e+04,1.542247581475967309e+04,1.532731405820892542e+04,1.528486538575048326e+04,1.519540427026932593e+04,1.517329390076210257e+04,1.509142045911712921e+04,1.502760236207352136e+04,1.501861121442494914e+04,1.495093924545272603e+04,1.490224306002902449e+04,1.487283252839435590e+04,1.488553318944192142e+04,1.485397520549179171e+04,1.484199001759101520e+04,1.483591588092225720e+04,1.483570498702002806e+04,1.484125503909713007e+04,1.485241044508246705e+04,1.488263045293785399e+04,1.490434618756064447e+04,1.489440033389857854e+04,1.493911141785501968e+04,1.498792536498303525e+04,1.504043541788079892e+04,1.504605038942175452e+04,1.511824976470414549e+04,1.517906559707393171e+04,1.519155255229678005e+04,1.526908676187891979e+04,1.533373813719436293e+04,1.534851660768521833e+04
1.599647499368659919e+04,1.602686301475061919e+04,1.609326936837210087e+04,1.617245287779561477e+04,1.618670856817450840e+04,1.624946548589534359e+04,1.632388931008073268e+04,1.633236168290241039e+04,1.638837094731212710e+04,1.644157703404297354e+04,1.649174709020700539e+04,1.648856753110510181e+04,1.653213487275940133e+04,1.657220484775843215e+04,1.659514779369320604e+04,1.662807940441687242e+04,1.664388960813291487e+04,1.661966120809726999e+04,1.662852392489614431e+04,1.663411129501980031e+04,1.663659218623812194e+04,1.663616841574982391e+04,1.663307172677124618e+04,1.662756040698697325e+04,1.661991559423759463e+04,1.664694377386756241e+04,1.663592261617738404e+04,1.662370526500925189e+04,1.659706862332552555e+04,1.658346695588127477e+04,1.656966469424145180e+04,1.654240337978772004e+04,1.652916689987856080e+04,1.650303781499003526e+04,1.649154049389157444e+04,1.648129608438271680e+04,1.647252923792653019e+04,1.650194358634130913e+04,1.649667255712914630e+04,1.649336884235474281e+04,1.649212422832753509e+04,1.649299271460200544e+04,1.649598964493171661e+04,1.650109131429309491e+04,1.647171241172275040e+04,1.648077706185940770e+04,1.649164030631943024e+04,1.650412823902245145e+04,1.653166540624620393e+04,1.654676037997854291e+04,1.657636353546942701e+04,1.659299903691510553e+04,1.662350055942015024e+04,1.664041612107041874e+04,1.662041919008077821e+04,1.663617184167576488e+04,1.665081664921401534e+04,1.667760583465360105e+04,1.668894677417882485e+04,1.669809116417053156e+04,1.671827606140592252e+04,1.672201326246801182e+04,1.672257141773996409e+04,1.671966782917932142e+04,1.669947120219873614e+04,1.668892318021832034e+04,1.667425520775618497e+04,1.664171912735234946e+04,1.661842936779183219e+04,1.662716964739764808e+04,1.658138264735951088e+04,1.653116239790554391e+04,1.647659403030673275e+04,1.645429328496972448e+04,1.639141122460362385e+04,1.632470450346948928e+04,1.629088475023186766e+04,1.620364625581729342e+04,1.617721449314980418e+04,1.608448055526055396e+04,1.603968460754631087e+04,1.594303938007948454e+04,1.589526880460840766e+04,1.579658432321940199e+04,1.574778024976636516e+04,1.564907230604926008e+04,1.560129271441468154e+04,1.551830346918792930e+04,1.547359160261508077e+04,1.538112289633628097e+04,1.534157239242276410e+04,1.526882315836279304e+04,1.518618005703616655e+04,1.517143915490258951e+04,1.509748439244666952e+04,1.504205229329067515e+04,1.504193455932024517e+04,1.499710735374790966e+04,1.497157748792998609e+04,1.493817290488013532e+04,1.492432452808116795e+04,1.490268998496525455e+04,1.490067254632481490e+04,1.491819864710807451e+04,1.492773712469142629e+04,1.494281697736339993e+04,1.497689369780250126e+04,1.500234779631928541e+04,1.504618838291722932e+04,1.504423245692250202e+04,1.509637632799948915e+04,1.515204065866177552e+04,1.517429345531365834e+04,1.523554865330693428e+04,1.529888528902825783e+04,1.532729882322277990e+04,1.539318840895246831e+04,1.547322391549189342e+04,1.548951894388423534e+04
