1.067293589608103503e+04,1.067768675242934842e+04,1.063230759178716107e+04,1.058695459866867168e+04,1.056558891907936777e+04,1.052049166143228649e+04,1.052566917810656014e+04,1.048093773733839043e+04,1.043642641595721943e+04,1.041619540317609790e+04,1.037227907854472869e+04,1.037879584428708768e+04,1.033551790781351156e+04,1.031665618370310403e+04,1.027412092407458113e+04,1.028208789421647089e+04,1.026436873442941578e+04,1.022300550273651606e+04,1.018199593776499387e+04,1.016554223136496148e+04,1.012531269225207507e+04,1.013559750317287399e+04,1.012030112712280243e+04,1.008120102101186058e+04,1.006667823969258461e+04,1.002827752044616500e+04,1.001448811086107162e+04,9.976741153528448194e+03,9.963642567301896634e+03,9.976637827097525587e+03,9.964127116113028023e+03,9.927624932794453343e+03,9.915734763514919905e+03,9.879772451886645285e+03,9.868481003961554961e+03,9.883209203780075768e+03,9.872455098675709451e+03,9.837613245115324389e+03,9.827465132394194370e+03,9.817618310882389778e+03,9.783654523879231419e+03,9.774469993432314368e+03,9.765628291721252026e+03,9.732657516107312404e+03,9.724583764042297844e+03,9.716919315549515886e+03,9.735311241374496603e+03,9.728533572066575289e+03,9.722257415034458973e+03,9.716517758634610800e+03,9.686852036683994811e+03,9.682309530777129112e+03,9.678417778728442499e+03,9.675218095423944760e+03,9.672752703717997065e+03,9.671064418165333336e+03,9.670196314191562124e+03,9.670191385474754497e+03,9.671092192424344830e+03,9.672940504731581314e+03,9.675776941025600536e+03,9.679640608701040037e+03,9.684568746986769838e+03,9.715105383226764388e+03,9.722283071487821871e+03,9.730625219568377361e+03,9.714526266074477462e+03,9.725244845765293576e+03,9.737193138981208904e+03,9.774922447346820263e+03,9.813851394262921531e+03,9.829640806397568667e+03,9.871097871622769162e+03,9.863715686290874146e+03,9.883298170316353207e+03,9.928545494272053475e+03,9.975002384527469985e+03,9.972541441880952334e+03,1.002137606136227259e+04,1.007135584254193236e+04,1.012245064714062028e+04,1.012450371349006309e+04,1.017770181545583182e+04,1.023188832881013514e+04,1.028701284874218982e+04,1.031690149655425921e+04,1.037365472670012969e+04,1.038101586616551504e+04,1.046314323187904665e+04,1.052188137712291791e+04,1.053101447601814289e+04,1.061456893564388156e+04,1.067461550755263306e+04,1.068479982999706408e+04,1.076906771503892378e+04,1.077954082644128357e+04,1.086383434640322230e+04,1.092435929431012482e+04,1.093459192489151610e+04,1.101830523819499649e+04,1.107808325007001986e+04,1.108729487255908316e+04,1.116963785561616533e+04,1.122788827109272825e+04,1.123532858828676399e+04,1.131553581953654066e+04,1.132142126742229448e+04,1.137649006286493386e+04,1.143059897979933885e+04,1.148367636815304286e+04,1.148549859567632666e+04,1.153630744615977164e+04,1.158589402532024542e+04,1.163419998019511695e+04,1.163103677313905791e+04,1.167664033150993055e+04,1.172081604792524013e+04,1.176352051184495213e+04,1.178171643500891514e+04
1.071882641250445158e+04,1.067261136481491849e+04,1.067654626926078345e+04,1.063045208478273707e+04,1.058448264569992898e+04,1.053868169681803556e+04,1.051706799088613479e+04,1.052189417448529275e+04,1.047691678205880453e+04,1.043224442849605111e+04,1.038790020702118636e+04,1.036800026100905961e+04,1.037455963605013676e+04,1.033140815137344180e+04,1.028863975996727822e+04,1.027041744303642190e+04,1.027864214548791642e+04,1.023715367786682327e+04,1.022019999940248090e+04,1.017954632834694348e+04,1.016345390054798918e+04,1.012359371671953704e+04,1.013423537973500788e+04,1.011928825501591200e+04,1.008051922542994726e+04,1.006629776947596110e+04,1.002816404125714325e+04,1.001459926605789224e+04,9.977028301367419772e+03,9.964052133709599730e+03,9.977111699410335859e+03,9.964599812710745027e+03,9.928026744533446617e+03,9.915994655029644491e+03,9.879815197669318877e+03,9.868230111877288437e+03,9.882584470845409669e+03,9.871377720341581153e+03,9.836007841467187973e+03,9.825250762282463256e+03,9.814718357292906148e+03,9.780003913874388672e+03,9.769990670723112999e+03,9.735753895945381373e+03,9.726340434262616327e+03,9.717254116922995308e+03,9.734142141130985692e+03,9.725784419336559949e+03,9.717857500854268437e+03,9.685904423935426166e+03,9.678979739758651704e+03,9.672612445639388170e+03,9.666849483816564316e+03,9.637173804707359523e+03,9.632777849022444570e+03,9.629133696316566784e+03,9.626292621818312909e+03,9.624306041601812467e+03,9.623225096958631184e+03,9.623100231494085165e+03,9.623980764568987070e+03,9.625914464745903388e+03,9.628947126902319724e+03,9.633122156642872142e+03,9.663049152992171003e+03,9.669644337071717018e+03,9.677496994926157640e+03,9.686637164116225904e+03,9.721616066344693536e+03,9.733433891375170788e+03,9.720957127815112472e+03,9.735456826102250488e+03,9.775863370716833742e+03,9.817596841877704719e+03,9.836290961429796880e+03,9.880766775249299826e+03,9.876430642805062234e+03,9.923553804454510100e+03,9.971961828426487045e+03,9.971522173823992489e+03,1.002241671883230447e+04,1.007449884766375180e+04,1.012772640477371169e+04,1.013189359094912652e+04,1.018723715713701677e+04,1.026764857074836618e+04,1.027472467649250757e+04,1.033273384298640303e+04,1.036540797245595604e+04,1.042480528588703601e+04,1.048481833940412616e+04,1.051913106520281872e+04,1.058003486713147140e+04,1.066508987925350084e+04,1.067645492250449024e+04,1.073806135628544143e+04,1.077333878091486986e+04,1.083491645448375493e+04,1.092002443749745726e+04,1.093110236962078488e+04,1.101555250523684663e+04,1.107598587502678856e+04,1.108576523912235280e+04,1.116856520868086955e+04,1.122717230392334750e+04,1.123486413334478857e+04,1.131520921337886830e+04,1.132112237240158720e+04,1.137610374913801206e+04,1.143001044012591592e+04,1.148277029754297109e+04,1.148416562250212883e+04,1.153442960475943983e+04,1.158335856763954507e+04,1.163089595936526894e+04,1.162687349949177587e+04,1.167149814025359228e+04,1.171459273175930139e+04,1.173306401521118823e+04
1.076537328324248665e+04,1.071846642704057740e+04,1.067163853307685349e+04,1.067506153012195136e+04,1.062856711316184374e+04,1.058230249921025825e+04,1.053630862603380228e+04,1.051459505990601610e+04,1.051940958505769959e+04,1.047452242653604480e+04,1.043002478243439691e+04,1.038593348631498520e+04,1.036635402410745155e+04,1.037329652451889706e+04,1.033059277991129784e+04,1.028832052728865528e+04,1.027063465922404430e+04,1.027943143352519837e+04,1.023853606096559088e+04,1.022219303050384042e+04,1.018215034737507813e+04,1.016667089076593402e+04,1.012740266648321995e+04,1.013863424211106030e+04,1.012423734781148960e+04,1.008596692512097070e+04,1.007220916527759982e+04,1.003446927014883840e+04,1.002125070668826811e+04,9.983940422145737102e+03,9.971166349847888341e+03,9.984366475240443833e+03,9.971891391119133914e+03,9.935248058634868357e+03,9.923071063034876715e+03,9.886635022644011769e+03,9.874714570777519839e+03,9.862900797779351706e+03,9.876915467697632266e+03,9.865290696107113035e+03,9.829432126345142024e+03,9.818090824920014711e+03,9.782474269144731807e+03,9.771484993601712631e+03,9.736194051923725056e+03,9.725659357832308160e+03,9.715387695870274911e+03,9.731025396221666597e+03,9.721373272343334975e+03,9.687609921763505554e+03,9.678809544367308263e+03,9.670499156646605115e+03,9.638164981545502087e+03,9.631018197462719399e+03,9.624529091850039549e+03,9.618757212683703983e+03,9.613762980785046238e+03,9.584981531244062353e+03,9.581733304073306499e+03,9.579441952533845324e+03,9.578166376619046787e+03,9.577963889682345325e+03,9.578889722226711456e+03,9.580996534156874986e+03,9.584333939709467813e+03,9.613583923298167065e+03,9.619532148369675269e+03,9.626840545760904206e+03,9.635542274772276869e+03,9.670252690902649192e+03,9.681849298895685934e+03,9.719430473295971751e+03,9.734004131601424888e+03,9.724403926602157298e+03,9.766413174396293471e+03,9.785426063516031718e+03,9.830384055254748091e+03,9.876762212201865623e+03,9.874419605492439587e+03,9.923585090771841351e+03,9.974092286530038109e+03,9.975774359211296542e+03,1.002883173934480874e+04,1.008309324888919946e+04,1.013850253010308370e+04,1.016898958481752197e+04,1.022642148460893077e+04,1.028479532325820765e+04,1.031791156336627319e+04,1.037784454604878556e+04,1.038828501602128381e+04,1.047344796908975695e+04,1.053509460893031792e+04,1.057085611007062835e+04,1.063313560234825127e+04,1.066928194072228507e+04,1.073179192825747305e+04,1.076791637089283904e+04,1.083024828758483636e+04,1.091601720315334387e+04,1.092769042580653331e+04,1.098903639133754768e+04,1.107342577723326394e+04,1.108348640253808117e+04,1.116644076754126581e+04,1.122509276297863107e+04,1.123272216578881489e+04,1.128950467775997822e+04,1.131848745015315944e+04,1.137304077464979491e+04,1.142640014737535967e+04,1.147849431585427374e+04,1.147912910085963085e+04,1.152849962065380532e+04,1.157642354632524075e+04,1.162284752852475503e+04,1.161764674684259808e+04,1.163778829051373759e+04,1.167954407035757322e+04
1.078882947910879739e+04,1.076505814109707717e+04,1.071774569941029768e+04,1.067062900543675642e+04,1.067387266110928613e+04,1.062731662136162049e+04,1.058109993804391706e+04,1.053525930609568604e+04,1.051379743801630684e+04,1.051895860003793496e+04,1.047451049564211280e+04,1.043053329300877522e+04,1.038703596635221038e+04,1.036811967741110129e+04,1.037579117620992474e+04,1.033385510257421993e+04,1.031647704159907880e+04,1.027554604547258350e+04,1.028522266638220754e+04,1.026928101444954518e+04,1.022972373921968392e+04,1.021466987553297076e+04,1.017589311418030411e+04,1.013741496094057220e+04,1.012348808775091311e+04,1.013577210612304043e+04,1.012235414434724953e+04,1.008497213340090821e+04,1.007199724725156557e+04,1.003493079373706132e+04,1.002227096588735003e+04,9.985396720427175751e+03,9.972938587804528652e+03,9.986334707350004464e+03,9.973924500503984746e+03,9.937214839743392076e+03,9.924851825525198365e+03,9.888104212800622918e+03,9.875758914899430238e+03,9.863407849325361894e+03,9.876778814339602832e+03,9.864410216601740103e+03,9.827721858642093139e+03,9.815468174076580908e+03,9.778878248417924624e+03,9.766850503094261512e+03,9.730488799746148288e+03,9.718837651334994007e+03,9.733041683559305966e+03,9.721896689695917303e+03,9.686602931291621644e+03,9.676243853007035796e+03,9.666355811451387126e+03,9.632450454266101588e+03,9.623724811793188564e+03,9.615670645533304196e+03,9.583735870463948231e+03,9.577253194466640707e+03,9.571652419980091508e+03,9.567004113114759093e+03,9.563377799069654429e+03,9.586336955832666717e+03,9.584952445391303627e+03,9.584789703081420157e+03,9.585908489140158053e+03,9.562863723781338194e+03,9.566698628984217066e+03,9.571965287308994448e+03,9.578704918452567654e+03,9.586953029497206444e+03,9.621394933361181756e+03,9.632771009225049056e+03,9.670315821733034682e+03,9.684900929837283911e+03,9.725618568843783578e+03,9.717796990296308650e+03,9.737148566279269289e+03,9.782615327031206107e+03,9.829598650307598291e+03,9.878075441044726176e+03,9.877873404574813321e+03,9.929230958462459967e+03,9.981960039814584889e+03,9.985827824913081713e+03,1.006537297456030501e+04,1.012179391267237952e+04,1.012918756128574023e+04,1.018772297649070970e+04,1.027130437475448707e+04,1.028146056858243537e+04,1.036651540482352721e+04,1.037804199346288806e+04,1.046418312099293689e+04,1.052678927842530538e+04,1.056347639348224038e+04,1.062659922279385501e+04,1.066353244444477605e+04,1.072673422451465740e+04,1.076347449272667291e+04,1.082631595411614398e+04,1.088885830191100831e+04,1.092447774594329530e+04,1.098601457056141226e+04,1.107047304626205005e+04,1.108050344532661256e+04,1.113981316714163404e+04,1.122164894730586093e+04,1.122888147028145613e+04,1.128512697436840972e+04,1.131346022533153882e+04,1.136723065131748444e+04,1.141968588117533363e+04,1.147075711227304419e+04,1.147029183330002706e+04,1.151841689016585588e+04,1.156498791709364741e+04,1.158679683315719012e+04,1.163018582557258196e+04,1.162179871592484415e+04
1.083656410199729726e+04,1.078865586435352452e+04,1.076469212393782800e+04,1.071731316253248951e+04,1.067025324458334944e+04,1.067367290659516584e+04,1.062741132517097867e+04,1.058160084226817708e+04,1.053627233823991264e+04,1.051542558996131993e+04,1.052130281064120936e+04,1.047764733228800469e+04,1.043453816812988953e+04,1.041600667019654065e+04,1.037406201938440790e+04,1.038280493010280770e+04,1.036597315616061678e+04,1.032569043105735909e+04,1.028587481792891049e+04,1.027065553603746230e+04,1.028192115230642958e+04,1.026754053097171709e+04,1.022948987887817202e+04,1.021586978525883751e+04,1.017843877798100584e+04,1.016541152702053660e+04,1.012842535224801395e+04,1.011581728482435574e+04,1.012924548576562665e+04,1.011682504199518007e+04,1.008027929266396677e+04,1.006795105228899047e+04,1.003136111036452348e+04,1.001898928018729202e+04,9.982233486992452526e+03,9.969712455726985354e+03,9.982868677135906182e+03,9.970065659797226544e+03,9.932821670087723760e+03,9.919773702716018306e+03,9.882226725056505529e+03,9.868954755334765650e+03,9.881309917081525782e+03,9.867815300684684189e+03,9.829912009340303484e+03,9.816381626255781157e+03,9.778459732917865040e+03,9.765060591515270062e+03,9.727308765792316990e+03,9.714251643245370360e+03,9.727038069704140071e+03,9.714507395284221275e+03,9.677885409266105853e+03,9.666230106616072590e+03,9.630562653840112034e+03,9.620087106546037830e+03,9.585680102347192587e+03,9.576701867895579198e+03,9.568582211522327270e+03,9.586900243151816539e+03,9.580726440967933740e+03,9.575656622903159587e+03,9.571768051437189570e+03,9.569134993525425671e+03,9.567828078479709802e+03,9.567913678654440446e+03,9.569453318338026293e+03,9.572503115976491245e+03,9.577113264534244081e+03,9.583327554430172313e+03,9.565674477803753689e+03,9.575175373619596940e+03,9.586364813430787763e+03,9.623919511753105326e+03,9.663127801034715958e+03,9.679520413488266058e+03,9.722145883457647869e+03,9.716345491778542055e+03,9.737790448529121932e+03,9.785423834832326975e+03,9.834635217975301202e+03,9.885385304607654689e+03,9.887436472515168134e+03,9.965418960645678453e+03,9.970290325665584533e+03,1.002653114706982160e+04,1.008398672038715449e+04,1.011663316065259278e+04,1.017617479483634816e+04,1.023666000442794757e+04,1.027191764489284833e+04,1.033389376497498597e+04,1.037037676790286787e+04,1.043340598570214934e+04,1.052075964648753870e+04,1.053428505054253037e+04,1.062194874351919862e+04,1.068576408205024200e+04,1.072310020127540338e+04,1.078657120805344312e+04,1.082327798944312963e+04,1.088594264652856509e+04,1.092157065355876694e+04,1.098298457295837579e+04,1.106718575598514872e+04,1.107685209322939045e+04,1.113565241108319606e+04,1.121683788401761558e+04,1.122332302520007943e+04,1.127867083329457091e+04,1.133272536603146000e+04,1.138541103876422858e+04,1.138649682409479283e+04,1.143624130080855684e+04,1.148442935098675662e+04,1.148087255219597137e+04,1.152581501041734009e+04,1.156906384306782275e+04,1.158742124551744200e+04
1.083463813262648182e+04,1.083664358875917969e+04,1.078875989359646337e+04,1.076495493596149026e+04,1.071786582497289055e+04,1.067122338750190102e+04,1.067519062608596869e+04,1.062958998548806994e+04,1.058455176425361424e+04,1.056401164939921000e+04,1.052023507662114571e+04,1.052720069718261948e+04,1.048468771517515415e+04,1.046676063136506127e+04,1.042554188736347714e+04,1.038490781284146942e+04,1.036893360170803498e+04,1.037961940768305794e+04,1.036473818186356220e+04,1.032638160023849923e+04,1.028844329286488937e+04,1.027504630483692745e+04,1.028807698572997469e+04,1.027536176870387862e+04,1.023885132242224063e+04,1.022667318163585151e+04,1.021466814340307610e+04,1.017866860648340662e+04,1.016687677950115176e+04,1.013091828172764508e+04,1.011913358065145439e+04,1.013318308666173834e+04,1.012116062777405023e+04,1.008478732176258927e+04,1.007242999554137350e+04,1.003559336501077632e+04,1.002278545406652847e+04,9.985394495683896821e+03,9.972067410632007523e+03,9.984253800063073868e+03,9.970321672996098641e+03,9.931814173025864875e+03,9.917384605022380129e+03,9.878366028230055235e+03,9.863537663374532713e+03,9.874260517636954319e+03,9.834744198302825680e+03,9.819568354850780452e+03,9.779966053200041642e+03,9.764880841384379892e+03,9.725451742753910366e+03,9.736360741193115246e+03,9.721895207662775647e+03,9.683310205357644008e+03,9.669709603988856543e+03,9.632105432554846630e+03,9.619727726951008663e+03,9.583462923623010283e+03,9.572677052283252124e+03,9.562812854586140020e+03,9.579441001789149595e+03,9.571678109969157958e+03,9.565114520512288436e+03,9.535212243866641074e+03,9.531312198749976233e+03,9.528853959160362137e+03,9.527909622249280801e+03,9.528545308492000913e+03,9.530820568324706983e+03,9.534787837819807464e+03,9.565129850032593822e+03,9.572626904987089802e+03,9.581930630941467825e+03,9.567547285919194110e+03,9.580480038105131825e+03,9.619898664566164371e+03,9.636534028870664770e+03,9.679594341016607359e+03,9.724415354244905757e+03,9.720867681509524118e+03,9.769144454109889921e+03,9.819079343019140651e+03,9.870622683759720530e+03,9.873596114617714193e+03,9.928149623950623209e+03,9.984103642574336845e+03,1.001549572807305958e+04,1.007391185499599669e+04,1.013345705016813008e+04,1.016802378934810986e+04,1.022942430518456968e+04,1.026557471389323473e+04,1.032837499547572224e+04,1.036563257201889064e+04,1.042935032903068350e+04,1.051730236656675697e+04,1.053135737118477118e+04,1.061942823492441676e+04,1.068354888840322383e+04,1.072107970327866497e+04,1.078461845467297826e+04,1.082127113620279124e+04,1.088374618537203060e+04,1.091905662953108549e+04,1.098001157572507509e+04,1.106360872675621067e+04,1.107255869390201406e+04,1.113048942906653974e+04,1.118724553430435481e+04,1.121603372806229163e+04,1.127011583660339238e+04,1.132277868112994474e+04,1.132384578007861273e+04,1.137346532814827515e+04,1.142147777331349789e+04,1.146783036764324061e+04,1.148926617294675088e+04,1.148209306085910066e+04,1.152331936850983766e+04
1.088336470704467501e+04,1.083509708610764937e+04,1.083734517092833994e+04,1.076346267355332384e+04,1.076656315707511385e+04,1.072013081966634491e+04,1.067427462906853179e+04,1.067916994039909332e+04,1.063459942836349364e+04,1.061455339784355601e+04,1.057141285446737311e+04,1.052896484830652480e+04,1.053738534338539466e+04,1.052027324989764020e+04,1.047998925175392651e+04,1.046431704478999018e+04,1.042537567818982643e+04,1.038701094976483728e+04,1.037328853647643700e+04,1.038620610808365745e+04,1.037348987721663434e+04,1.033719873594024102e+04,1.032533386466364027e+04,1.031378983103513019e+04,1.027844675723518594e+04,1.026737855621488416e+04,1.028246840263294871e+04,1.027156002252167673e+04,1.023657711141865002e+04,1.022562375766161131e+04,1.021454291269331588e+04,1.017916219957967405e+04,1.016768501730731805e+04,1.013173813416759367e+04,1.011967260961566353e+04,1.013315600065267063e+04,1.012029233624567860e+04,1.008282404826124548e+04,1.006912982336481218e+04,1.003074886999771115e+04,1.001619322769693099e+04,9.976905186349380529e+03,9.987329865992011037e+03,9.971507991785445483e+03,9.931020808461151319e+03,9.914547483076545177e+03,9.873455854642728809e+03,9.882267384522012435e+03,9.865147664838121273e+03,9.823607934802654199e+03,9.782025360395200551e+03,9.764995713534066454e+03,9.723672280097176554e+03,9.732742653109016828e+03,9.716527243463788182e+03,9.676312335368391359e+03,9.636623324907675851e+03,9.622219969056546688e+03,9.583984187293710420e+03,9.571302574915695004e+03,9.585116093388525769e+03,9.574516789186367532e+03,9.565130690786289051e+03,9.532439763580478029e+03,9.525790147985855583e+03,9.520633333854697412e+03,9.517052832001267234e+03,9.515125545713643078e+03,9.514921096900594421e+03,9.516501208526402479e+03,9.519919148607354145e+03,9.525219240439910209e+03,9.532436443080572644e+03,9.566236758607177762e+03,9.577382659283524845e+03,9.564989715531410184e+03,9.580025909492396750e+03,9.621660548361804103e+03,9.665177660348970676e+03,9.686058481171668973e+03,9.733338033348234603e+03,9.732233774875872768e+03,9.783022680830094032e+03,9.835471379211026942e+03,9.863754996885312721e+03,9.919224095051904442e+03,9.976110471372667234e+03,9.984146536001673667e+03,1.006779587071391870e+04,1.012824101148793125e+04,1.016368237771640997e+04,1.022589510460899328e+04,1.028885107129588141e+04,1.032627947963291081e+04,1.036413250189617975e+04,1.042834603994581266e+04,1.051668844362665550e+04,1.053102464647250599e+04,1.061925305854831822e+04,1.068340453863181756e+04,1.072083346556476317e+04,1.078413219584635226e+04,1.082040547925978899e+04,1.088235615685416269e+04,1.091700187437399291e+04,1.097714322915859520e+04,1.103625893486835412e+04,1.106764171128941234e+04,1.112433261628216133e+04,1.117971180648216978e+04,1.123369515597412828e+04,1.123604404506503488e+04,1.128700556006407714e+04,1.133636488535549142e+04,1.138406420306852669e+04,1.137992042520327959e+04,1.142417810995291802e+04,1.146664878021305776e+04,1.148410044348618248e+04
1.093258304594462970e+04,1.088434742452486535e+04,1.083653081981273135e+04,1.083938800136398640e+04,1.076624693770639715e+04,1.077025172842183383e+04,1.072484629684325773e+04,1.068014554396504536e+04,1.068635041440735222e+04,1.066697396302325069e+04,1.062464577154180733e+04,1.058309483466841630e+04,1.056623242819544976e+04,1.052629175233124988e+04,1.053726378150278470e+04,1.052274493920858367e+04,1.048505604631640017e+04,1.047197618698654696e+04,1.043557366604733397e+04,1.042373428844087175e+04,1.038838895334565314e+04,1.037754461506253574e+04,1.036708206857001642e+04,1.038301635141181760e+04,1.037307093340987922e+04,1.036328182667007786e+04,1.032957242937295814e+04,1.031988320087289321e+04,1.028604191897375858e+04,1.027614481796114706e+04,1.026602231174838380e+04,1.028163494266659836e+04,1.027083199731644709e+04,1.023554169193201233e+04,1.022387487381158280e+04,1.018755569823752739e+04,1.017484483161204844e+04,1.013735148821354960e+04,1.012347894294251455e+04,1.013490625146753155e+04,1.011974949889260461e+04,1.007979764592827996e+04,1.006345303184472141e+04,1.002231029822875280e+04,9.980581813920551213e+03,9.988508763035875745e+03,9.970133463971753372e+03,9.927086212668713415e+03,9.883694671757810283e+03,9.864488860971934628e+03,9.870846066613536095e+03,9.827050688069168245e+03,9.783277331743040122e+03,9.764140921966463793e+03,9.720814368020161055e+03,9.727983254375343677e+03,9.685513456816726830e+03,9.668210531970660668e+03,9.627114766080863774e+03,9.586837627967324806e+03,9.572216377126227599e+03,9.584189134344458580e+03,9.571859408012387576e+03,9.536238773608987685e+03,9.526713547146326164e+03,9.518730494667077437e+03,9.487688114972290350e+03,9.483080719662131742e+03,9.480274794556142297e+03,9.479341617411206244e+03,9.480343125105137005e+03,9.483331365515914513e+03,9.513046781976969214e+03,9.520141236854920862e+03,9.529320384232210927e+03,9.565231067467044340e+03,9.578628751826152438e+03,9.568592058394104242e+03,9.586081255581928417e+03,9.630263145887409337e+03,9.676390841535641812e+03,9.724420740325818770e+03,9.724173506589868339e+03,9.775825022282631835e+03,9.829174100954376627e+03,9.884135657940205419e+03,9.914795629080937942e+03,9.972607637562730815e+03,9.981562752847967204e+03,1.006607581999027752e+04,1.012734341387078166e+04,1.016354654422210297e+04,1.022644497289342689e+04,1.026394998971666791e+04,1.032792702762110275e+04,1.036616793001646874e+04,1.043065619061753387e+04,1.051915292157005752e+04,1.053349245729699032e+04,1.062160140541213332e+04,1.068548232622549403e+04,1.072248692757874960e+04,1.078521411773396540e+04,1.082076084634798463e+04,1.088183320352961891e+04,1.091545047844096553e+04,1.097441023861186113e+04,1.103219519180900534e+04,1.108870672156263026e+04,1.111719301005112357e+04,1.117082446530085872e+04,1.122293177928650402e+04,1.122334023227629950e+04,1.127220041761171888e+04,1.131935394542838912e+04,1.131468686426756904e+04,1.138510393748621573e+04,1.137682448786648456e+04,1.141684902412033989e+04
1.093217838664300507e+04,1.093424914218633785e+04,1.088666982021048898e+04,1.086335278979872237e+04,1.081705741141701583e+04,1.077146649949630955e+04,1.077675455792091088e+04,1.073274153572146315e+04,1.071335587621678133e+04,1.067109779189733672e+04,1.067984183799952734e+04,1.063935325939086033e+04,1.062359536263725022e+04,1.058488464257726446e+04,1.057091121892258525e+04,1.053387002227152698e+04,1.052154393046104815e+04,1.053616460224610637e+04,1.052522847515594913e+04,1.051490881459147204e+04,1.048124744203384034e+04,1.047196164526589564e+04,1.043909586768763256e+04,1.043051344962842995e+04,1.042214057637506630e+04,1.041388654150950606e+04,1.038165158108735341e+04,1.037337915828017867e+04,1.036495176530350000e+04,1.038236731308541493e+04,1.037334506394428900e+04,1.036391170021088328e+04,1.032999160537385615e+04,1.031953686517744791e+04,1.028439143170247553e+04,1.027266765541184577e+04,1.028626308494177647e+04,1.027302352687620441e+04,1.023492607170788688e+04,1.022012071977372398e+04,1.018038186133469571e+04,1.016398673390844488e+04,1.012263335670175729e+04,1.013062138923755265e+04,1.008772492651492939e+04,1.006837916577508440e+04,1.002418132341964520e+04,9.979396904504741542e+03,9.984280034282011911e+03,9.962916737967869267e+03,9.916992895044415491e+03,9.870858599733357551e+03,9.874752560778491898e+03,9.828562083311786409e+03,9.782516665938193910e+03,9.736743360770604340e+03,9.715950169344403548e+03,9.721298868267651414e+03,9.677234191650757566e+03,9.633969128756230930e+03,9.616275044014182640e+03,9.575080362335662358e+03,9.585248393720394233e+03,9.571240137051645434e+03,9.534089383354265010e+03,9.523182506749028107e+03,9.513973945584119065e+03,9.481881847398850368e+03,9.476375594792567426e+03,9.472835386017512064e+03,9.471332271009683609e+03,9.471926381195167778e+03,9.474666409648809349e+03,9.479589185809803894e+03,9.486719347973412368e+03,9.520787967028300045e+03,9.532387130331713706e+03,9.570851061665132875e+03,9.586890343729959568e+03,9.579538610535295447e+03,9.624446451127034379e+03,9.671375210661877645e+03,9.720267236337793292e+03,9.720945181408693315e+03,9.773531655154249165e+03,9.827831536612706259e+03,9.883744230271433480e+03,9.915338727468886646e+03,9.974053734702261863e+03,9.983854728021251503e+03,1.006916844630346168e+04,1.013115687341289595e+04,1.016798180826631142e+04,1.023141170647789841e+04,1.026932272016874049e+04,1.033359607606931240e+04,1.037198668474951410e+04,1.043649880252074217e+04,1.052488498670284753e+04,1.053892087337429984e+04,1.062660683086817153e+04,1.066356096682461794e+04,1.072612552725872956e+04,1.078792944463787717e+04,1.082238505236135097e+04,1.088221111745640519e+04,1.091442566175642423e+04,1.097182907597513986e+04,1.102790825792201213e+04,1.108257070844739792e+04,1.108557063681696309e+04,1.113714652123075211e+04,1.118708197729440872e+04,1.123531578435166739e+04,1.123165312415687367e+04,1.127635485897568287e+04,1.131922485767444596e+04,1.133692473101185169e+04,1.132600623377854936e+04
1.098250354860781226e+04,1.093469107458472718e+04,1.093762571615437628e+04,1.091469350241660140e+04,1.086892779284360586e+04,1.082395932834711857e+04,1.077984065583636402e+04,1.078678461883903947e+04,1.076826702433166793e+04,1.072702371191370185e+04,1.068673792084795423e+04,1.067128148214222165e+04,1.068313196047415840e+04,1.066961173435687670e+04,1.063326267649975489e+04,1.062162763925772742e+04,1.058700551769460435e+04,1.057705147511782707e+04,1.056782817355907173e+04,1.053535855714263744e+04,1.052738103589141974e+04,1.051988562298065517e+04,1.053899421061982866e+04,1.053215799994068220e+04,1.052550845615097205e+04,1.051894058337173192e+04,1.048844510586440447e+04,1.048173721617882256e+04,1.047479394712010981e+04,1.046751266519370256e+04,1.043583688016605447e+04,1.042760534464524244e+04,1.041875425667976378e+04,1.038518521402194165e+04,1.037487990248043207e+04,1.036373424025767599e+04,1.037776657239609631e+04,1.036474831814286881e+04,1.032675741277504130e+04,1.028770962302177213e+04,1.027176230894631590e+04,1.028082981316396035e+04,1.023874831888213521e+04,1.021980972601450048e+04,1.017582658891985193e+04,1.013093113416328561e+04,1.013536654202276259e+04,1.011307617372297682e+04,1.006598147516950849e+04,1.001830819054486346e+04,9.970166187666560290e+03,9.971783121195068816e+03,9.923072660787031054e+03,9.874268609084829222e+03,9.875638773645332549e+03,9.827072519634995842e+03,9.778838272303895792e+03,9.731082834376720712e+03,9.734129226112447213e+03,9.687791596885916078e+03,9.666953749857551884e+03,9.622679270527849440e+03,9.579606894974072929e+03,9.588066805138456402e+03,9.572493529141502222e+03,9.533940846784040332e+03,9.521803430628817296e+03,9.486841842854337301e+03,9.478569815450435271e+03,9.472357566591002978e+03,9.468285468361311359e+03,9.466421884706331184e+03,9.466822598851984367e+03,9.469530347135034390e+03,9.474574462777702138e+03,9.481970632039359771e+03,9.516428296250756830e+03,9.528551983525801916e+03,9.567642572555341758e+03,9.584415346227586269e+03,9.577883833268249873e+03,9.623670133404899389e+03,9.671533103884808952e+03,9.721399075765861198e+03,9.723063355481019244e+03,9.776648643262393307e+03,9.831937299828656251e+03,9.863060001163190464e+03,9.921310148361284519e+03,9.980883016559761018e+03,1.001575718629307812e+04,1.007745444327447331e+04,1.011409933159931097e+04,1.017730834351130761e+04,1.026516549336857861e+04,1.027917789775106939e+04,1.036754186887890683e+04,1.038178181123390095e+04,1.047001752232672879e+04,1.053401927436812548e+04,1.057134613903012360e+04,1.063435250665593776e+04,1.067034477260053973e+04,1.073179209770457237e+04,1.076591887701323139e+04,1.082529448450624477e+04,1.088349898922271677e+04,1.091393343361117877e+04,1.096940709149258328e+04,1.102341135937659419e+04,1.107586230460865772e+04,1.107656429183849832e+04,1.112569525078192237e+04,1.117307983394720941e+04,1.121866799111146247e+04,1.123905866271790001e+04,1.123087039945827564e+04,1.127096880354778841e+04,1.128579985018330626e+04
1.103349335297622019e+04,1.098605870035942644e+04,1.093927795420476468e+04,1.091694028654994327e+04,1.092188800422186614e+04,1.087764938319296925e+04,1.083435756691382267e+04,1.081580725823590183e+04,1.077460557385461289e+04,1.078460876476956764e+04,1.076930620951254969e+04,1.073138696786621585e+04,1.071831233951967442e+04,1.068252473939288757e+04,1.067157910779665690e+04,1.068794539479815285e+04,1.067889433963288320e+04,1.067070783746620873e+04,1.066330833803795394e+04,1.063283208657745854e+04,1.062675209121400258e+04,1.062117444226492080e+04,1.061599112597905332e+04,1.058724280744380667e+04,1.058251569166616537e+04,1.057783314041828271e+04,1.057307438597732107e+04,1.056811853478246485e+04,1.053893618642218644e+04,1.053324234302804689e+04,1.052700213139838888e+04,1.052010727772765676e+04,1.053867131633154349e+04,1.053014715308163431e+04,1.052068305046349997e+04,1.048630393708214979e+04,1.047476613091677427e+04,1.043813018675855710e+04,1.042431011852927622e+04,1.038526800712302793e+04,1.036905742606704007e+04,1.037769889982920722e+04,1.033499633333116071e+04,1.031516091545287054e+04,1.027014056653867010e+04,1.027412439878404257e+04,1.022696543262782507e+04,1.017884882629875210e+04,1.012987357169209281e+04,1.013029995480913203e+04,1.007994765317477868e+04,1.002909524396638153e+04,9.977881775514135370e+03,9.976587080925120972e+03,9.925089224213588750e+03,9.873685892051435076e+03,9.872652950894902460e+03,9.821920050128304865e+03,9.771771566628041910e+03,9.722370724240056006e+03,9.724002126867650077e+03,9.676589514702645829e+03,9.630401110816688742e+03,9.585583376607450191e+03,9.566985594068188220e+03,9.575538442679593572e+03,9.535776541661296505e+03,9.522622316566965310e+03,9.486830328329058830e+03,9.477915864089212846e+03,9.471245106962713180e+03,9.466894698664109455e+03,9.464927499772689771e+03,9.465392082837206544e+03,9.468322348431625869e+03,9.473737266773096053e+03,9.481640746246092021e+03,9.516729944265243830e+03,9.529595530066057108e+03,9.569527115800767206e+03,9.587216525830008322e+03,9.581653093016881030e+03,9.628471248379064491e+03,9.677397738887550076e+03,9.728341099895827938e+03,9.731037563304387731e+03,9.785668916184280533e+03,9.866349994765158044e+03,9.874007654145330889e+03,9.933131305379094556e+03,9.967664991035970161e+03,1.002900665106173255e+04,1.011546347672067350e+04,1.012829622679250315e+04,1.021593092261682614e+04,1.027980393444065703e+04,1.031779977539312677e+04,1.038189622623249306e+04,1.041972223416570341e+04,1.048338119123643264e+04,1.052039375513311825e+04,1.058298632037523203e+04,1.066867189276043791e+04,1.067952763354851049e+04,1.076322614223993151e+04,1.077193376641304349e+04,1.082947740220822743e+04,1.088568605037900852e+04,1.091396887396721286e+04,1.096715013889147667e+04,1.101872612202781602e+04,1.106862390082539059e+04,1.106670415857073385e+04,1.108955117208260344e+04,1.113416064793954138e+04,1.117690214804219431e+04,1.121774675462642335e+04,1.123332620927187963e+04,1.122031280584866181e+04
1.108525820588800707e+04,1.103829238480736967e+04,1.101564277402026346e+04,1.097030160093979794e+04,1.092587049234556616e+04,1.093256963672177517e+04,1.091382540696798242e+04,1.087261750281674904e+04,1.083253556277506868e+04,1.081735332606843440e+04,1.077965301671723137e+04,1.076691061427901150e+04,1.078171962711034575e+04,1.077130566840246320e+04,1.073828180607454851e+04,1.073008665997174103e+04,1.072289832969647250e+04,1.071664030884890235e+04,1.068743175303548924e+04,1.068277233931774390e+04,1.067875024056632537e+04,1.067525102808419615e+04,1.067215337957374868e+04,1.066933030234253965e+04,1.066665042371564778e+04,1.066397933673072839e+04,1.068750489219071460e+04,1.068443544164634659e+04,1.068096638974052621e+04,1.067696497628194629e+04,1.067230251699048677e+04,1.066685580508643761e+04,1.063672265016249730e+04,1.062938289090417675e+04,1.062093793156035827e+04,1.058745295535429614e+04,1.057656945632080897e+04,1.056435526014980860e+04,1.052687765557746752e+04,1.053811319490955793e+04,1.052165792211255757e+04,1.047987348800629843e+04,1.043662102097796742e+04,1.041596661230752943e+04,1.036996637244254816e+04,1.037275426106198574e+04,1.032419767803288414e+04,1.027448731002185377e+04,1.027384721031636582e+04,1.022215736686039600e+04,1.016966981686791405e+04,1.011652775500188000e+04,1.008875237061345251e+04,1.003469469781059888e+04,9.980462382507394068e+03,9.976361011476576095e+03,9.922282626210537273e+03,9.868560379452392226e+03,9.865453496595640900e+03,9.812972742345329607e+03,9.736888492887315806e+03,9.736504406078835018e+03,9.687175284151366213e+03,9.663824656857294030e+03,9.617539692902035313e+03,9.572965542397258105e+03,9.580395177661615890e+03,9.564317589476297144e+03,9.525786791771097342e+03,9.514146043610933702e+03,9.480181507955829147e+03,9.473351028838340426e+03,9.469022817485616542e+03,9.467251109591685236e+03,9.468074148400482954e+03,9.471513914112263592e+03,9.477575994198268745e+03,9.486249594548833556e+03,9.522230285875382833e+03,9.536065828236110974e+03,9.577059495804860489e+03,9.570327885864244308e+03,9.616036957662698114e+03,9.663961059245251818e+03,9.714002202657226007e+03,9.715966929154412355e+03,9.769876837798219640e+03,9.825526008023676695e+03,9.882770648537290981e+03,9.915636123006697744e+03,9.975517585260589840e+03,9.986329841823258903e+03,1.007248922362682060e+04,1.013509876986147719e+04,1.017228056863087113e+04,1.023579280595973250e+04,1.027346200036883238e+04,1.033716602328763111e+04,1.037461967988969991e+04,1.043782503836113028e+04,1.052450982691001263e+04,1.053644724847536418e+04,1.062161049184235162e+04,1.068196182065526955e+04,1.071487668751509045e+04,1.077293131774710491e+04,1.077955875783416559e+04,1.083490016517063486e+04,1.088874932887207251e+04,1.091452506149391411e+04,1.096507264431027579e+04,1.101389361495239427e+04,1.103741118021385046e+04,1.108267663942161016e+04,1.107595161456317874e+04,1.111747822019259911e+04,1.113362589974189177e+04,1.117138149219960906e+04,1.118379555972546223e+04
1.108776312209371827e+04,1.106491600623505656e+04,1.106943741102717468e+04,1.102480091201281175e+04,1.098116224707628135e+04,1.093859700733784121e+04,1.092087782880198210e+04,1.093085325657634530e+04,1.091559511363366619e+04,1.087803432714994415e+04,1.086542113519215491e+04,1.083045228489747387e+04,1.082046881146312808e+04,1.083818266329486505e+04,1.078051943105141982e+04,1.077418923724821070e+04,1.076894294506823644e+04,1.076469535082028597e+04,1.078772506521930336e+04,1.078516575531184208e+04,1.078328274737362517e+04,1.078194836257456336e+04,1.078102722768121748e+04,1.078037761689623585e+04,1.077985286977511714e+04,1.077930287203108310e+04,1.077857558527265792e+04,1.077751861108827870e+04,1.077598077440989437e+04,1.077381371075619245e+04,1.077087344178109197e+04,1.076702192353780265e+04,1.073839172771183075e+04,1.073234814561286476e+04,1.072503235230443534e+04,1.071634466566983610e+04,1.068241587423023884e+04,1.067076321779875434e+04,1.068383847069594776e+04,1.066893237239553127e+04,1.062859815785769024e+04,1.058655719402432442e+04,1.056674610861708061e+04,1.052143375824563554e+04,1.052463462559558684e+04,1.047619135411630850e+04,1.042629187524237204e+04,1.037503780373127665e+04,1.037265515188366408e+04,1.031903858122369274e+04,1.026445317629064084e+04,1.023503209840893396e+04,1.017891055707994383e+04,1.012231632680055918e+04,1.011550959749857429e+04,1.003424436428275658e+04,9.977274339056079043e+03,9.970698684116010554e+03,9.914476148943504086e+03,9.884683034444256919e+03,9.829956270755006699e+03,9.776306403376685921e+03,9.723919101624400355e+03,9.723091524388059042e+03,9.673758742053527385e+03,9.626203536145010730e+03,9.580573474971228279e+03,9.587197717026370810e+03,9.570505212477699388e+03,9.531553198872308712e+03,9.519710945057566278e+03,9.485727893928153208e+03,9.479081952333886875e+03,9.475116684382781386e+03,9.473874350854486693e+03,9.475379574270948069e+03,9.479639214561466360e+03,9.486642400127951987e+03,9.521080322736932430e+03,9.533500377484684577e+03,9.573193023445463041e+03,9.565300142907188274e+03,9.585308834034716710e+03,9.632333797490166035e+03,9.681564185045077465e+03,9.732881352620868711e+03,9.735968321340449620e+03,9.815475540162267862e+03,9.872136804769834271e+03,9.880136391854233807e+03,9.963882432540587615e+03,9.974287553084810497e+03,1.003571769279841101e+04,1.012213630682212533e+04,1.013471801465546014e+04,1.022196509984266595e+04,1.028523307460176875e+04,1.032239458735246444e+04,1.038544019745368860e+04,1.042196882016435848e+04,1.048409094096554327e+04,1.051931558232649695e+04,1.057986606319801649e+04,1.066324136631030706e+04,1.067157709049896221e+04,1.072874279176446726e+04,1.078455723327369196e+04,1.083891180525172967e+04,1.086520811133686220e+04,1.091630030956963310e+04,1.091560447637664038e+04,1.093957362464070320e+04,1.098541727037480450e+04,1.102939235976347118e+04,1.107146467021244462e+04,1.108814742842322448e+04,1.107631091152469162e+04,1.108917982469662093e+04,1.112372697998397052e+04
1.116497031793676433e+04,1.111920592747282353e+04,1.107431823240953963e+04,1.108055204883395345e+04,1.103775823876340291e+04,1.101972070256681764e+04,1.097939833368622931e+04,1.096399883314827457e+04,1.092636704146594275e+04,1.091377556800335879e+04,1.092906325441692024e+04,1.091927928414501366e+04,1.088727081527488190e+04,1.088026809389455593e+04,1.087457862314541126e+04,1.087013724831366562e+04,1.086686399575916585e+04,1.086466478118411032e+04,1.086343226481651072e+04,1.083935986139767920e+04,1.086337779429173679e+04,1.086428449125681072e+04,1.086561779871740146e+04,1.086722151429849328e+04,1.086893391690365388e+04,1.087058938228603802e+04,1.087202005414827727e+04,1.087305755473062163e+04,1.087353471829748014e+04,1.087328733055334305e+04,1.087215585681219818e+04,1.086998714171478059e+04,1.086663606343598804e+04,1.083828249462362146e+04,1.083218466542783426e+04,1.082453620904090349e+04,1.081523940924467752e+04,1.078048594445778872e+04,1.076768862232047832e+04,1.077940357894301997e+04,1.073910906760027865e+04,1.072070039606583305e+04,1.067663838219427271e+04,1.068084253493510187e+04,1.063308959711831994e+04,1.058357834833653760e+04,1.053240050377105945e+04,1.052980702130243299e+04,1.047562013158950140e+04,1.042013557960896287e+04,1.036350914427448879e+04,1.033193463174236240e+04,1.027346038969606161e+04,1.026445227525758673e+04,1.018080331217887579e+04,1.012103369932761416e+04,1.008713933876180090e+04,1.002751866398320999e+04,9.968338829183485359e+03,9.935554607942380244e+03,9.877815643171081319e+03,9.871262911971018184e+03,9.815855474318988854e+03,9.737425836305250414e+03,9.735289178432110930e+03,9.684804340796137694e+03,9.636325510780414334e+03,9.614638261042360682e+03,9.570678446534875548e+03,9.579278246489877347e+03,9.564925102996057831e+03,9.528634669883816969e+03,9.519727860823331866e+03,9.513632082452182658e+03,9.485701441464159871e+03,9.485347458724019816e+03,9.487877501213399228e+03,9.517991691915114643e+03,9.526257958234113175e+03,9.537324854004225926e+03,9.575790773024462396e+03,9.566771817585016834e+03,9.585768862372235162e+03,9.631880965019023279e+03,9.680285833827860188e+03,9.730856369071057998e+03,9.733280297797085950e+03,9.787725721279508434e+03,9.868261179968394572e+03,9.875756739203934558e+03,9.934688013648585184e+03,9.968949360988190165e+03,1.002991098168652388e+04,1.011584330559242517e+04,1.012797358085232554e+04,1.021469905877619749e+04,1.027743088846578030e+04,1.031403872287011473e+04,1.037646506497918745e+04,1.038832293021827354e+04,1.047374116724097985e+04,1.053440925527986838e+04,1.056790223113496904e+04,1.062656564952176996e+04,1.068405421035503969e+04,1.071384951259937952e+04,1.076854116368963150e+04,1.077160658235280425e+04,1.082314513064755010e+04,1.087298767513030907e+04,1.092106302643407253e+04,1.091723250135482522e+04,1.093799896052290569e+04,1.098056733406850253e+04,1.102120817791184527e+04,1.103638931653212057e+04,1.107321750854447600e+04,1.108464256150156143e+04,1.106759447494414053e+04
1.121990292561415117e+04,1.117479565886515775e+04,1.113063041722483467e+04,1.108752121942761005e+04,1.106916728012054227e+04,1.107866465726707247e+04,1.103939920924877515e+04,1.102511783097355510e+04,1.098873732139202184e+04,1.097746820564242080e+04,1.096772103738744045e+04,1.093586533726984635e+04,1.092915235225408105e+04,1.092389915761110024e+04,1.092005169474828290e+04,1.091753922589894501e+04,1.091627491337424726e+04,1.091615656569911516e+04,1.091706754517817171e+04,1.091887782969488762e+04,1.092144521986535983e+04,1.092461668106599245e+04,1.092822980834988994e+04,1.093211440087569645e+04,1.093609413121320540e+04,1.096362541779360618e+04,1.096725857258815086e+04,1.097043792380599189e+04,1.097298026289377594e+04,1.097470544960018015e+04,1.097543829622518388e+04,1.097501042240450624e+04,1.097326206169894431e+04,1.097004380160468281e+04,1.096521823913828121e+04,1.093503511278168298e+04,1.092665653005961212e+04,1.091634959607414203e+04,1.093050551129595260e+04,1.091610067001744756e+04,1.087599362824924174e+04,1.083373280777293257e+04,1.083951771626458503e+04,1.076664797287114197e+04,1.076825433301029261e+04,1.071780518461184693e+04,1.066547560991192586e+04,1.063764798181632068e+04,1.058185218075974262e+04,1.052457451380151906e+04,1.051605890564265428e+04,1.043233846757825813e+04,1.037158836297507514e+04,1.033613848167753895e+04,1.027404151522449683e+04,1.023762903220139560e+04,1.017506848716092645e+04,1.013859815444037667e+04,1.007649885972662014e+04,1.001502703683698201e+04,9.980201738683710573e+03,9.920583620435820194e+03,9.888020683030132204e+03,9.831142112267902121e+03,9.775983302653185092e+03,9.722732469600014156e+03,9.721675631621910725e+03,9.672754395247669891e+03,9.626229061385791283e+03,9.582224828262435040e+03,9.565554829901841003e+03,9.577130043924320489e+03,9.566067921341658803e+03,9.533326676161988871e+03,9.528207489359832834e+03,9.526098543143045390e+03,9.527007698813948082e+03,9.530922263889806345e+03,9.537809261770569719e+03,9.572272180333908182e+03,9.584959076434228336e+03,9.574877236409316538e+03,9.617582426568988012e+03,9.662787383306946140e+03,9.685874035280401586e+03,9.735765105998580111e+03,9.737548325312818633e+03,9.815877606807276607e+03,9.871446554914437002e+03,9.878430865401867777e+03,9.936885147965018405e+03,9.970672350021719467e+03,1.003116223956065369e+04,1.011661115072554094e+04,1.012823037391193793e+04,1.021441548841900658e+04,1.027656532211133162e+04,1.028846626776715857e+04,1.037428794108857983e+04,1.038541396429741872e+04,1.047001547393191140e+04,1.052980387500952929e+04,1.053845008980293642e+04,1.061999884916521842e+04,1.067639027901960071e+04,1.068125741551382816e+04,1.073476156614322099e+04,1.078667531078172033e+04,1.083690782406012295e+04,1.083521795657984330e+04,1.088188243060078821e+04,1.092667738262837520e+04,1.091947244441678049e+04,1.093682796506688464e+04,1.097594411563538597e+04,1.098952621044637635e+04,1.102482105724370922e+04,1.103466298736879253e+04,1.106618763977027265e+04
7.968576311202952638e+03,7.922481771500955801e+03,7.927248732382315211e+03,7.913924362668622052e+03,7.870272791514988057e+03,7.827533027173310984e+03,7.817192820259777363e+03,7.826694608116638847e+03,7.818517782513372367e+03,7.811478293908585329e+03,7.774240091555955587e+03,7.769516235720569966e+03,7.765920646065031178e+03,7.763425452371942811e+03,7.761989755141898058e+03,7.761559917788428720e+03,7.762069990390678868e+03,7.763442262332420796e+03,7.765587939770543016e+03,7.768407942522200756e+03,7.771793813652009703e+03,7.775628733796067536e+03,7.811158746534609236e+03,7.815531051364989253e+03,7.819963529165193904e+03,7.824317249096842716e+03,7.809677932458114810e+03,7.813441385388490744e+03,7.816703702656290261e+03,7.819326559691136936e+03,7.821175303599331528e+03,7.822120373501646100e+03,7.822038685042643920e+03,7.820814964895631419e+03,7.818343021493288688e+03,7.814526938767638057e+03,7.828054493309115060e+03,7.821292690294038039e+03,7.812967428916948847e+03,7.771696279862138908e+03,7.760170461778267054e+03,7.715608848938252777e+03,7.669369190150348004e+03,7.671628832972142845e+03,7.622160918061825214e+03,7.571158758628851501e+03,7.518703649308416061e+03,7.514990687390934909e+03,7.459894639531412395e+03,7.421941687614948023e+03,7.364605984838912264e+03,7.274410462898318656e+03,7.265558851552981650e+03,7.173871802253619535e+03,7.163956738903681980e+03,7.071431631796731381e+03,7.011027251062885625e+03,6.968422715038643219e+03,6.925976451625669142e+03,6.866207770549168345e+03,6.774422217879880918e+03,6.766129830735328142e+03,6.675824121702928096e+03,6.669463597429275978e+03,6.614132271100330399e+03,6.560151502738212002e+03,6.524762279007147299e+03,6.473727741375187179e+03,6.424356135660520522e+03,6.409931318140414078e+03,6.414321657214954030e+03,6.370506761037016986e+03,6.361858206537261140e+03,6.322011460283043562e+03,6.317479346195759717e+03,6.315019362621911569e+03,6.314636405138357077e+03,6.316320847359573236e+03,6.320048752911854535e+03,6.359029425259301206e+03,6.366757441528228810e+03,6.409546299339213874e+03,6.421056403705704724e+03,6.417287879131734371e+03,6.465292903822381049e+03,6.514822421907301759e+03,6.515660197431512643e+03,6.567924743407027563e+03,6.621387844728626078e+03,6.675927197026496287e+03,6.713974648143455852e+03,6.770172568740788847e+03,6.809491500237141736e+03,6.866787329838407459e+03,6.924467119962588185e+03,6.964619184280076297e+03,7.022530800985463429e+03,7.062515381740580779e+03,7.120092667522170814e+03,7.159360336880461546e+03,7.216067428763723001e+03,7.272199683245562483e+03,7.309456326006504241e+03,7.364001792415598175e+03,7.417643361330003245e+03,7.420150580430403352e+03,7.471700740615226096e+03,7.522098530233895872e+03,7.521136116154782940e+03,7.569052363111637533e+03,7.615651621646800777e+03,7.660894562866858905e+03,7.673299185083073098e+03,7.665750103775033494e+03,7.675438076698541408e+03,7.715332454310002504e+03,7.722398382051032968e+03,7.759602613366267178e+03,7.764110236387612531e+03
8.024311842520721257e+03,8.009875242402194999e+03,7.965102056069066748e+03,7.921143398929096293e+03,7.928254670206311857e+03,7.917483739603427239e+03,7.876550131084630266e+03,7.868042798135633348e+03,7.860712857165694004e+03,7.823273990400834009e+03,7.818385418321733596e+03,7.814708562622225145e+03,7.812228375962935388e+03,7.810915674735762877e+03,7.810727287688059732e+03,7.811606348617351614e+03,7.813482731930183945e+03,7.816273628326685866e+03,7.819884256358636776e+03,7.824208704128599493e+03,7.860467588290339336e+03,7.865883948864735430e+03,7.871641178959747776e+03,7.877599026861658785e+03,7.914890896560478723e+03,7.920832990899332799e+03,7.926528034700371791e+03,7.912937533150747186e+03,7.917668297160591464e+03,7.921697803695831681e+03,7.924880058263428509e+03,7.927074446838116273e+03,7.928147235913522309e+03,7.927973019424913218e+03,7.926436097523139324e+03,7.923431772772921249e+03,7.918867550097289495e+03,7.912664227686211234e+03,7.923622635301173432e+03,7.913938342475536047e+03,7.871232047314348165e+03,7.826671327747957548e+03,7.811693712862092070e+03,7.813673367896728450e+03,7.763817343847651500e+03,7.712271177056623856e+03,7.677711383427988039e+03,7.622971515485900454e+03,7.566841269847325748e+03,7.509449715278373333e+03,7.469244861683051568e+03,7.409663055274577346e+03,7.367462416384805692e+03,7.274330375299701700e+03,7.262783374613354681e+03,7.168696699921827530e+03,7.124463731630326947e+03,7.062299400015239371e+03,7.018167152975045610e+03,6.924174012828327250e+03,6.913299949834588915e+03,6.820517125249723904e+03,6.761195248945121421e+03,6.720358204249932896e+03,6.663319795039220480e+03,6.624939554921351373e+03,6.570740040323755238e+03,6.518184470390988281e+03,6.517503979000350228e+03,6.468519597621983849e+03,6.421437793145159958e+03,6.409514738334604772e+03,6.416627916495024692e+03,6.408857252233981853e+03,6.370111187360831536e+03,6.366684332452568924e+03,6.365423285283206496e+03,6.366316642393852817e+03,6.369337723000411643e+03,6.374444959711254342e+03,6.414770544226659695e+03,6.423915913319302490e+03,6.417925389955780702e+03,6.463857099653192563e+03,6.511445122689532582e+03,6.510516844610770931e+03,6.561126619892485905e+03,6.613073473585682223e+03,6.666235009329015156e+03,6.670327736151084537e+03,6.725482370152167277e+03,6.763956808355578687e+03,6.820459880120586604e+03,6.909946709609066602e+03,6.917127819263347192e+03,6.974580534721346339e+03,7.014280498027219437e+03,7.071585917948279530e+03,7.160815820873278426e+03,7.167329629743704572e+03,7.223408784352766816e+03,7.260744711298146285e+03,7.315340901082061464e+03,7.369073345684475498e+03,7.421840279149851995e+03,7.423391144604102010e+03,7.473956434717634693e+03,7.523315932729979977e+03,7.521265174808446318e+03,7.568057147988729412e+03,7.613493650469114073e+03,7.626001914760825457e+03,7.668743972833763110e+03,7.659997843591729179e+03,7.668476159710437059e+03,7.675626978000596864e+03,7.713003399999957765e+03,7.717592505642911419e+03,7.720934056013153167e+03
8.062354179522226332e+03,8.067443415573303355e+03,8.023209877168847015e+03,8.010983316033612937e+03,7.968632239000260597e+03,7.927285880167473806e+03,7.918338528178835986e+03,7.910583953274763189e+03,7.922930079909856431e+03,7.917665794572792947e+03,7.913685853908275021e+03,7.910990366904181428e+03,7.909564296147291316e+03,7.878120282972842688e+03,7.910384555442113196e+03,7.912525675382028567e+03,7.915726530520885717e+03,7.919899161737761460e+03,7.924942665262176888e+03,7.911861358300491702e+03,7.918281376724684378e+03,7.925200256201380398e+03,7.963720150462904712e+03,7.971232537411706289e+03,8.009952385536307702e+03,8.017438562959083356e+03,8.024653269774513319e+03,8.062523050249612425e+03,8.068726166763692163e+03,8.074165253217710415e+03,8.059628762592474231e+03,8.063063200755714206e+03,8.065281010984966997e+03,8.066146338075457606e+03,8.065533678789855912e+03,8.063329286437190603e+03,8.078485503940231865e+03,8.072796402663690969e+03,8.065252906798821641e+03,8.024734922301402548e+03,8.013378385813877685e+03,7.968944817756302655e+03,7.922519412182009546e+03,7.924294375752593623e+03,7.874017842637840658e+03,7.821906563124066452e+03,7.818168242256942904e+03,7.762642510944133392e+03,7.674093222243216587e+03,7.665718543023831444e+03,7.574337142618285725e+03,7.513457126354071079e+03,7.469985948396759341e+03,7.425667349737253971e+03,7.362413523693539901e+03,7.266856446250312729e+03,7.221101122219464742e+03,7.175257683607749641e+03,7.111563678061531391e+03,7.016041316707473015e+03,6.971092597514536465e+03,6.909153396644105669e+03,6.865767518939275760e+03,6.773244120774441399e+03,6.764740168516203994e+03,6.674771056729689008e+03,6.669256903722387506e+03,6.615283118349354481e+03,6.563139503536338452e+03,6.512913448347215308e+03,6.514789308878389420e+03,6.468623497362365015e+03,6.424551806711358950e+03,6.415831443486502394e+03,6.409334174510993762e+03,6.422069024375698064e+03,6.420054258422140265e+03,6.420277034048107453e+03,6.422707383331086021e+03,6.410296106723952107e+03,6.416971408733050339e+03,6.458780559211038053e+03,6.469461894493113505e+03,6.515040289690077771e+03,6.512221725352428621e+03,6.561104101894015912e+03,6.611461351681704400e+03,6.663172194500191836e+03,6.665985495274682762e+03,6.719973489412164781e+03,6.774892144823126728e+03,6.813031590305850841e+03,6.869256569263787242e+03,6.925949248062475817e+03,6.965183385720680235e+03,7.022238041499454994e+03,7.061412440869404236e+03,7.118209765768435318e+03,7.174704338171839481e+03,7.212676883836917114e+03,7.268052101798617514e+03,7.272564695134991780e+03,7.326381270008190768e+03,7.411122291000327095e+03,7.412820208623859799e+03,7.463476170001900755e+03,7.512935831707523903e+03,7.511057005308946827e+03,7.576429594815534074e+03,7.571883426738000708e+03,7.616120286263700109e+03,7.627393626774835866e+03,7.668889625718729803e+03,7.677479973794077523e+03,7.666120074701262638e+03,7.672034234822873259e+03,7.676663756873284001e+03,7.711569262634729967e+03,7.713751959747198271e+03
8.120905291893286631e+03,8.076395553147478495e+03,8.063794164957100293e+03,8.071152940912637860e+03,8.060475154526444385e+03,8.019866616526473081e+03,8.011528006025211653e+03,7.973304894114437047e+03,7.967535090700810542e+03,7.963090235473966459e+03,7.959987749771593371e+03,7.927006472499168012e+03,7.926579178593208781e+03,7.927445811495941598e+03,7.960792894926940789e+03,7.964105873260879889e+03,7.968531857370398939e+03,7.973978857426729519e+03,8.011502179614006309e+03,8.018688796620874200e+03,8.026543930779880611e+03,8.066030328911787365e+03,8.074821905419637915e+03,8.064765509183431277e+03,8.073805165000609122e+03,8.113793251644150587e+03,8.122455813651933568e+03,8.161635758716030978e+03,8.169216578415274853e+03,8.175979486750205979e+03,8.162594704081973759e+03,8.167210608247318305e+03,8.170524915137444623e+03,8.172392166703328257e+03,8.172677839120384306e+03,8.171259850006928900e+03,8.168029955654987134e+03,8.162895023211021908e+03,8.174923183107486693e+03,8.165743235541798640e+03,8.123517024450935423e+03,8.110188697598205181e+03,8.063759489028103417e+03,8.065322274512582226e+03,8.014742495024547679e+03,7.962183464273286518e+03,7.926614172996603884e+03,7.870313009242818225e+03,7.812367698867194122e+03,7.771605349778372329e+03,7.710720015042985324e+03,7.667228152648458490e+03,7.572472622700443026e+03,7.526904732750001131e+03,7.462224138226767536e+03,7.415414816218166379e+03,7.318153560592239955e+03,7.270877265113085741e+03,7.173525308611686341e+03,7.126611528547015041e+03,7.062316619025135878e+03,7.016624232382950140e+03,6.921664637166075408e+03,6.910375479829264805e+03,6.817787096407817444e+03,6.759210292041127104e+03,6.719664094018109608e+03,6.664448446058144327e+03,6.661222371428477345e+03,6.609899552775779739e+03,6.560663535641331691e+03,6.513570816194260260e+03,6.518803825200360734e+03,6.509178415942442371e+03,6.468880915415240452e+03,6.463937224299501395e+03,6.461320120402699104e+03,6.461013001832499867e+03,6.462982125586306211e+03,6.467177110649383394e+03,6.473531596411863575e+03,6.515021800081362016e+03,6.525489564194751438e+03,6.520680462110729422e+03,6.567784359621378826e+03,6.616498780005669687e+03,6.666704888347216183e+03,6.668136319814249873e+03,6.720906341665599030e+03,6.774742474185768515e+03,6.811934467273385962e+03,6.867339074552262900e+03,6.923333304691041121e+03,6.961992510044277878e+03,7.018573234617157141e+03,7.025071158075181302e+03,7.113897888320498168e+03,7.170191032610484399e+03,7.175929742035339586e+03,7.263354238323081518e+03,7.267885157382668694e+03,7.321730852472770493e+03,7.374680489725898951e+03,7.426625466446508653e+03,7.427283573012857232e+03,7.476940388034476200e+03,7.525341202610637993e+03,7.522274300762306666e+03,7.568014247308106860e+03,7.612352036741358461e+03,7.623728548619110370e+03,7.665297448582685320e+03,7.673959755334071815e+03,7.662664514957636129e+03,7.668620489971945062e+03,7.673279682904569199e+03,7.676681364763964666e+03,7.710389484820101643e+03,7.711417939772101818e+03
8.162013130726234522e+03,8.168176428053440759e+03,8.125046903165522963e+03,8.113872283400618471e+03,8.072720297129329992e+03,8.063776850255060708e+03,8.075100884761777706e+03,8.068654228227067506e+03,8.063552513516100589e+03,8.059832362709916197e+03,8.026442465782078216e+03,8.025533192444156157e+03,8.026010626485571265e+03,8.027844419230386848e+03,8.062076541891612578e+03,8.066481654756993521e+03,8.072056456643651472e+03,8.059651442018483067e+03,8.067245010939193889e+03,8.075675020880124066e+03,8.115879487728496315e+03,8.125597388113237685e+03,8.166714290752599481e+03,8.177092914160573855e+03,8.168349879010405857e+03,8.209579480803542538e+03,8.219587409530824516e+03,8.259977452970808372e+03,8.268841123549093027e+03,8.276838011614978313e+03,8.314612636262987508e+03,8.320366796309943311e+03,8.324732694779435406e+03,8.327554834863549331e+03,8.328689274222269887e+03,8.328005242729879683e+03,8.325386643071484286e+03,8.320733417912269942e+03,8.313962768648547353e+03,8.274222407890949398e+03,8.263084104442037642e+03,8.218861566430889070e+03,8.172362531069025863e+03,8.173773491079802625e+03,8.122859071042388678e+03,8.069837718695547665e+03,8.064902612407982815e+03,7.976797509336582152e+03,7.918037161110376474e+03,7.876472630747943185e+03,7.814571936021995498e+03,7.770091881809465121e+03,7.674258436878590146e+03,7.627560151173733175e+03,7.561582068708899897e+03,7.513537678482593037e+03,7.415027539065718884e+03,7.366463594942179043e+03,7.267852025727101136e+03,7.219644927263143472e+03,7.171945505761454115e+03,7.074788728776009521e+03,7.010907226452196483e+03,6.965954388567741262e+03,6.922293671851773979e+03,6.862456223863613559e+03,6.771736439234839054e+03,6.765575216501369141e+03,6.711245657971303444e+03,6.659005378822039347e+03,6.658999698983738199e+03,6.611168429657467641e+03,6.565618423237698153e+03,6.522368847862933762e+03,6.514519086289888946e+03,6.509067906628857600e+03,6.523134720760543132e+03,6.522455483942176215e+03,6.524121120740397600e+03,6.510941875119286124e+03,6.517097201349650277e+03,6.525375316486723023e+03,6.568707023631170159e+03,6.613892589813127415e+03,6.660830272893363144e+03,6.659334095441270620e+03,6.709415759124909528e+03,6.760855152699106839e+03,6.763404448733257595e+03,6.817079118156747427e+03,6.871636615313444054e+03,6.909239127318869578e+03,6.964960536819387926e+03,7.021054732440068619e+03,7.059478083323017927e+03,7.115708077356073773e+03,7.171803738203831017e+03,7.209534663730039028e+03,7.264790684394392883e+03,7.269316748343146173e+03,7.323214755869441433e+03,7.376254396662785439e+03,7.410021511433209525e+03,7.460921927712071920e+03,7.510648149578773882e+03,7.527462052912655054e+03,7.574694998632126953e+03,7.570414335528563242e+03,7.614883068980590906e+03,7.626364195317873964e+03,7.668030510901095113e+03,7.676759757513500517e+03,7.665505023178062402e+03,7.671489857835607836e+03,7.676161517663596896e+03,7.711084506174462149e+03,7.713271342001215089e+03,7.714283635858562775e+03,7.714178328995854827e+03
8.224072970711684320e+03,8.211572195361892227e+03,8.168990566564491019e+03,8.177469453206984326e+03,8.167840088950440986e+03,8.128402484350546729e+03,8.121224842800613260e+03,8.115370660291024251e+03,8.110896813666651724e+03,8.076799647930834908e+03,8.075197214881744003e+03,8.075039653413405176e+03,8.076315254455490503e+03,8.110047093193890760e+03,8.114098133976047393e+03,8.119445649084897013e+03,8.126007483574270736e+03,8.164681938715832075e+03,8.173394011171418242e+03,8.163818099788797554e+03,8.174114942131156567e+03,8.215961932894104393e+03,8.227289357017114526e+03,8.269769509324396495e+03,8.312248077198746614e+03,8.323821543728263350e+03,8.315729053477203706e+03,8.326428613486204995e+03,8.367219076849956764e+03,8.376330388228670927e+03,8.415069568782113492e+03,8.421826740661927033e+03,8.427124626036471454e+03,8.461441134732333012e+03,8.463347466681239894e+03,8.463333529173396528e+03,8.461276124354451895e+03,8.426442883972427808e+03,8.420021153109875740e+03,8.411301085139130009e+03,8.369562165835523047e+03,8.325405169050558470e+03,8.309699988310283516e+03,8.310930772439198336e+03,8.259787756002217066e+03,8.175476479120261502e+03,8.170048266382538714e+03,8.112457746523577953e+03,8.072042474379588384e+03,8.010787536761868978e+03,7.916820036584103946e+03,7.871463690864999080e+03,7.824842817044991534e+03,7.726985960945719853e+03,7.659854959051735932e+03,7.610724243684206158e+03,7.511126689294760581e+03,7.461438266043929616e+03,7.411818843120447127e+03,7.312413369421206880e+03,7.263610419717704644e+03,7.165443178604240529e+03,7.118320853151322808e+03,7.022194919091096381e+03,7.009897332204534905e+03,6.916704972153238486e+03,6.875261973141576163e+03,6.818074727296741912e+03,6.762951826112723211e+03,6.760067419514292851e+03,6.709347165183804464e+03,6.660946987056231592e+03,6.665018902395095211e+03,6.621404410156770609e+03,6.613102119773277082e+03,6.574395506503613433e+03,6.571075575470284093e+03,6.570199436902068555e+03,6.571723918428149773e+03,6.575587575504789129e+03,6.614637767781241564e+03,6.622968033573386492e+03,6.666210196848027408e+03,6.661257843456231058e+03,6.675425250210682862e+03,6.724092723271402065e+03,6.774255650963517837e+03,6.775576550049649086e+03,6.860828815438580932e+03,6.914459932234574808e+03,6.918804156725615030e+03,6.973921605500567239e+03,7.011733239151828457e+03,7.067556372099352302e+03,7.123512967688351637e+03,7.161434259434172418e+03,7.217042050641583046e+03,7.272273201578267617e+03,7.276785336880624527e+03,7.362713796472176909e+03,7.415818409305298701e+03,7.417854065788123989e+03,7.468939165712101385e+03,7.518863445824244991e+03,7.517420323365484364e+03,7.564783173406729475e+03,7.610762876710679848e+03,7.623779133306787116e+03,7.666961025080439867e+03,7.677187390904116910e+03,7.667384182070818497e+03,7.674770915454893839e+03,7.712313588626711862e+03,7.717013561764470069e+03,7.720418640503921779e+03,7.722580954412114806e+03,7.723558328915329184e+03,7.723412988939671777e+03,7.722210256653634133e+03
8.319032079934724607e+03,8.276149092241423205e+03,8.264930153932247777e+03,8.223807699191296706e+03,8.214652950006158790e+03,8.175737279923079768e+03,8.169056017657741904e+03,8.163718270470591960e+03,8.159785711169446586e+03,8.176451691416878020e+03,8.175443763447605306e+03,8.175925303414813243e+03,8.177886687783291563e+03,8.162139616472093621e+03,8.166945689506625058e+03,8.173087656343181152e+03,8.211438772693858482e+03,8.220017946891777683e+03,8.260516744019143516e+03,8.271080967464309651e+03,8.313225611392990686e+03,8.325198016145819565e+03,8.318256975296186283e+03,8.361665835509367753e+03,8.374394873329641996e+03,8.417722360803018091e+03,8.460659722069947748e+03,8.472458167484030128e+03,8.464005887456034543e+03,8.474082712201314280e+03,8.513638776754378341e+03,8.521263758759450866e+03,8.527366905131173553e+03,8.562325119075743714e+03,8.564891318427486112e+03,8.565452989688463276e+03,8.563880935257562669e+03,8.560063582699804101e+03,8.523389825767953880e+03,8.514854901154729305e+03,8.473278676523652393e+03,8.459857730033021653e+03,8.463413415506918682e+03,8.414424910268571693e+03,8.363016099914704682e+03,8.328598672303691274e+03,8.272548703965207096e+03,8.214399990277655888e+03,8.173443495504616294e+03,8.111462935247051064e+03,8.066905684460536577e+03,7.970686835281463573e+03,7.923250855015299749e+03,7.824548189693916356e+03,7.775112338598148199e+03,7.674864216040004976e+03,7.624367909524036804e+03,7.573700798030506121e+03,7.472949981688696425e+03,7.422664981838373933e+03,7.322769007964263437e+03,7.273796855637105182e+03,7.175638259092607768e+03,7.161006137486867374e+03,7.065552939847286325e+03,7.021756797958747484e+03,6.961952209179464262e+03,6.921826364532986190e+03,6.866089141342905350e+03,6.812603379123465857e+03,6.761450784518354340e+03,6.762786201120645273e+03,6.716486785818706267e+03,6.672654221937991679e+03,6.664165842062706361e+03,6.675564703465264756e+03,6.672154806679231115e+03,6.671261478904430987e+03,6.672835596650984371e+03,6.659466532316320809e+03,6.665736166785587557e+03,6.674209042123751715e+03,6.717578985891130287e+03,6.762851920780085493e+03,6.759834948800678831e+03,6.775904901189293014e+03,6.826191344134364044e+03,6.910286363178369356e+03,6.912890220993518597e+03,6.966549058951175539e+03,7.021007884719554568e+03,7.025897153056052048e+03,7.113621371669927612e+03,7.169271067657828098e+03,7.174804000084317522e+03,7.262403131989878602e+03,7.267471121322916588e+03,7.322159830107906600e+03,7.376224309085431742e+03,7.411215582049946534e+03,7.463509813464072067e+03,7.514767755586653948e+03,7.514777474767441163e+03,7.563644391643785639e+03,7.611184857628162717e+03,7.625789374978252454e+03,7.670577494759025285e+03,7.663785486499255057e+03,7.674119570915208897e+03,7.714546696352481376e+03,7.722040540625166614e+03,7.759568549815710867e+03,7.764308780655934243e+03,7.767724070697644493e+03,7.769870371192460880e+03,7.770810339616786223e+03,7.770611923990509240e+03,7.769346926969068591e+03,7.767089570663374616e+03
8.365948994856211357e+03,8.323579839400132187e+03,8.312814563250780338e+03,8.322298327798896935e+03,8.313518155860947445e+03,8.275128530326124746e+03,8.268834599832684034e+03,8.263900626671791542e+03,8.260393670232733712e+03,8.227490881563426228e+03,8.226970208845916204e+03,8.227963937989348779e+03,8.261348637949209660e+03,8.265345752563036513e+03,8.270783458441990661e+03,8.277596527531859465e+03,8.316531452225899557e+03,8.325859624640463153e+03,8.316919854952953756e+03,8.328233035168668721e+03,8.371151143487717491e+03,8.414640895789518254e+03,8.427899827431538142e+03,8.472098447701428086e+03,8.466221329282649094e+03,8.510291822389262961e+03,8.523450225849373965e+03,8.566613085888384376e+03,8.578484554129128810e+03,8.569763907914515585e+03,8.609960056681855349e+03,8.618289981686306419e+03,8.625044690175855067e+03,8.660492734347208170e+03,8.663585769179480849e+03,8.664601993081276305e+03,8.663407017072662711e+03,8.659884745189920068e+03,8.623514944805938285e+03,8.615099667498696363e+03,8.573646853256766917e+03,8.560162344346957980e+03,8.563657940353499725e+03,8.514517536752886372e+03,8.462868238215451129e+03,8.428220742488600081e+03,8.371762997116689803e+03,8.313129547224030830e+03,8.271711957225721562e+03,8.178162122530193301e+03,8.163966586979251588e+03,8.067133432849514065e+03,8.019019986939587398e+03,7.919637493037735112e+03,7.869467057236091932e+03,7.818629449330299394e+03,7.717258721156627871e+03,7.665837827318959171e+03,7.564402363377943402e+03,7.513398856133251684e+03,7.412881716021773173e+03,7.363261389820254408e+03,7.264578172872803407e+03,7.217234292140172329e+03,7.171346254353091354e+03,7.109154533691762481e+03,7.016638845222740201e+03,6.976153835953853559e+03,6.920076223521493375e+03,6.916437763849942712e+03,6.865073056876834016e+03,6.816187805676687276e+03,6.769819280284864362e+03,6.758711270679719746e+03,6.767655178804241586e+03,6.761758960615145043e+03,6.725789874885580502e+03,6.725083353899273789e+03,6.759573467966169119e+03,6.763828045282076346e+03,6.770432642335392302e+03,6.761802670636301627e+03,6.772725979155889945e+03,6.818300651992612984e+03,6.865652943837107159e+03,6.914638671369961230e+03,6.914991734841256402e+03,6.966748586004832759e+03,7.019626043483469402e+03,7.023273150265071308e+03,7.110043648594466504e+03,7.165060937988746446e+03,7.170292319845670136e+03,7.225790184372104704e+03,7.263146321381616872e+03,7.318307903566106688e+03,7.373076419411983807e+03,7.427280803766567260e+03,7.462379360889375675e+03,7.514898307741328608e+03,7.516297456675994908e+03,7.566668017350108130e+03,7.615801164698234061e+03,7.663602254954399541e+03,7.659927099578955676e+03,7.673378063854557695e+03,7.716914991679572267e+03,7.727473923837911570e+03,7.768025815083237831e+03,7.775667726109706564e+03,7.813242494366044411e+03,7.818051719471055549e+03,7.821499049536883831e+03,7.823643985431903275e+03,7.824553910701361019e+03,7.824302561939693987e+03,7.822968461392680183e+03,7.820633334904152434e+03,7.817380538227676880e+03
8.465192685342452023e+03,8.423366270402941154e+03,8.412968851066019852e+03,8.372804820943216328e+03,8.364405761297442950e+03,8.326403602929931367e+03,8.320463145275163697e+03,8.315877953438059194e+03,8.312720201922376873e+03,8.311044130264112027e+03,8.310885186096507823e+03,8.312259369367064210e+03,8.315162786763714394e+03,8.319571423097280785e+03,8.325441134000109741e+03,8.363500024728971766e+03,8.372111944118252723e+03,8.412656986658752430e+03,8.423619420701812487e+03,8.466201708403677912e+03,8.478977977044152794e+03,8.472872561211202992e+03,8.517354838931903942e+03,8.562065460050420370e+03,8.576345914545323467e+03,8.570871204925497295e+03,8.615155331652553286e+03,8.628382514820346842e+03,8.671305351480725221e+03,8.713166711041209055e+03,8.723459138329169946e+03,8.712568236490449635e+03,8.719794788163562771e+03,8.725218525799573399e+03,8.728668844080209965e+03,8.760343022029206622e+03,8.729045168473036028e+03,8.725713681383553194e+03,8.719896962450176943e+03,8.711517609548638575e+03,8.720250000496685971e+03,8.676210091901011765e+03,8.659929604246979579e+03,8.610636222095548874e+03,8.578348847296263557e+03,8.523910952008329332e+03,8.467098689054255374e+03,8.427469531307870056e+03,8.366250907458568690e+03,8.322441869143221993e+03,8.226645616615540348e+03,8.160215285783167928e+03,8.111566798358806409e+03,8.061752736419148277e+03,7.960944524215243291e+03,7.909537621537368977e+03,7.826432796932174824e+03,7.724270040785690071e+03,7.672377389686531387e+03,7.570705023920192616e+03,7.519785775790514890e+03,7.419586892972409260e+03,7.370602927839761833e+03,7.272770468678703764e+03,7.226588939235371072e+03,7.164114659676095471e+03,7.121545178702479461e+03,7.063139567501202691e+03,7.024809463464131113e+03,6.970999609583173878e+03,6.919673487190448213e+03,6.921042130528745474e+03,6.874864308041695040e+03,6.863879105181084014e+03,6.823032095166825457e+03,6.817444847896462306e+03,6.814513120496267220e+03,6.814195800638728542e+03,6.816430382959282724e+03,6.821133834036707412e+03,6.860774094541440718e+03,6.870134069239371456e+03,6.914114646668167552e+03,6.909949056879442651e+03,6.925223790377960540e+03,6.974634958294685930e+03,7.025487787118996494e+03,7.059731060550548136e+03,7.112833474925544579e+03,7.166814454253239091e+03,7.171325291164743248e+03,7.226427412253338844e+03,7.263687660251453053e+03,7.319041098189074546e+03,7.374270604638470104e+03,7.410887182494887384e+03,7.465216072358511155e+03,7.518875946096144617e+03,7.521560755947051803e+03,7.573396884001092985e+03,7.624123078150791116e+03,7.673618616519437637e+03,7.671636924525402719e+03,7.718393875076086260e+03,7.763663088075933047e+03,7.776034292115509743e+03,7.818285657105385326e+03,7.827653003649436869e+03,7.816712428891012678e+03,7.823054973836231511e+03,7.827948618707829155e+03,7.862790797206806019e+03,7.864960437046480365e+03,7.865861148199037416e+03,7.865572156910726335e+03,7.864178579252591589e+03,7.861769699068332557e+03,7.827108637700235704e+03,7.822961639815504896e+03
8.516703838184766937e+03,8.475354470159305492e+03,8.465366796742629958e+03,8.475740003456827253e+03,8.467624939264293062e+03,8.460652916857536184e+03,8.424316948578692973e+03,8.419964875754259992e+03,8.417035428230534308e+03,8.415588013229775243e+03,8.415662750650837552e+03,8.417279757997661363e+03,8.420438654653844424e+03,8.425118292695638957e+03,8.461920348652492976e+03,8.469522530198650202e+03,8.478463038709363900e+03,8.469125121122255223e+03,8.511003994129277999e+03,8.523285892338259146e+03,8.566954066155827604e+03,8.561166573329741368e+03,8.575406473426643061e+03,8.620471583452046616e+03,8.665570277539023664e+03,8.710489849401492393e+03,8.724720127761567710e+03,8.718596228178997990e+03,8.761764956989383791e+03,8.773593890875141369e+03,8.814478560061543249e+03,8.823645672150072642e+03,8.861375607653782936e+03,8.867061150908470154e+03,8.870719984734751051e+03,8.872192294276494067e+03,8.871335952774039470e+03,8.868028269023285247e+03,8.862167548411962343e+03,8.823481738809263334e+03,8.812338540341152111e+03,8.768241827252990333e+03,8.721405635832808912e+03,8.722003188474249328e+03,8.669841723057645140e+03,8.615141048108693212e+03,8.577605424336623400e+03,8.518119899218290811e+03,8.476004149829997914e+03,8.412371647377847694e+03,8.316276816788507858e+03,8.268623431164975045e+03,8.169441032701375661e+03,8.119205204870813759e+03,8.068049631630710792e+03,7.966128593544126488e+03,7.913920719271089183e+03,7.811505098399502458e+03,7.727870712855830789e+03,7.676046505387057550e+03,7.574711265376914525e+03,7.524445663832942955e+03,7.425151789073395776e+03,7.409231050810863962e+03,7.313005431544879684e+03,7.268618924269336276e+03,7.176010592381557217e+03,7.167835549787007039e+03,7.111847797675465699e+03,7.026017560557520483e+03,7.025160988238145364e+03,7.009093989634304307e+03,6.963422312147362391e+03,6.920420900522236479e+03,6.912612766087113414e+03,6.925201683352439431e+03,6.922823577916133218e+03,6.923109458307997556e+03,6.925988840689853532e+03,6.913687951632600743e+03,6.921439341345248977e+03,6.963907361662772018e+03,6.976075996208324796e+03,7.022617856164521072e+03,7.020770813524490222e+03,7.070667217901383992e+03,7.121967590483953245e+03,7.174482863384298980e+03,7.209944953698926838e+03,7.264198706231487449e+03,7.268923795868089655e+03,7.324135697348887334e+03,7.411383318233099999e+03,7.416579988687561126e+03,7.471626041793264449e+03,7.526250005676090950e+03,7.561777679212274961e+03,7.614926361460966291e+03,7.667132144077884732e+03,7.668128073620697251e+03,7.718019278472609585e+03,7.766577301084937062e+03,7.813702618985407753e+03,7.828026199349784292e+03,7.822015842536085984e+03,7.864575774596130941e+03,7.874256333431083476e+03,7.913647016231319867e+03,7.920249328798527131e+03,7.925343792758969357e+03,7.910104389220825396e+03,7.912347673953627236e+03,7.913279173937160522e+03,7.912983265738585033e+03,7.911551510792138288e+03,7.927956888995395275e+03,7.924539428062445950e+03,7.920283260801486904e+03,7.915290243099123472e+03
8.570665815575164743e+03,8.560363310842687497e+03,8.570297662378696259e+03,8.561470102140388917e+03,8.523096594582457328e+03,8.516367854014766635e+03,8.510855041879665805e+03,8.476060093108273577e+03,8.473273541118134744e+03,8.471945894350676099e+03,8.472121856426994782e+03,8.473825799785554409e+03,8.477061224152334034e+03,8.512429872089531273e+03,8.518676436381239910e+03,8.526342972039565211e+03,8.565909867204783950e+03,8.576190051303157816e+03,8.567985577079147333e+03,8.610860026015870972e+03,8.624088753961783368e+03,8.668449466574034886e+03,8.713245385471149348e+03,8.727982423930254299e+03,8.723009584595623892e+03,8.768017827683768701e+03,8.812623587361740647e+03,8.826395477575279074e+03,8.869597938696038909e+03,8.861640994510322344e+03,8.872311718347045826e+03,8.911707906381023349e+03,8.919259373637614772e+03,8.924939922807010589e+03,8.928571925950382138e+03,8.960117280395206762e+03,8.929061876383173512e+03,8.925652383349690353e+03,8.919662859315081732e+03,8.911013639826443978e+03,8.869493243576376699e+03,8.875330000341375126e+03,8.828277779778058175e+03,8.778495173961797263e+03,8.726056415515253320e+03,8.721182672379974974e+03,8.663711762365710456e+03,8.573447639224876184e+03,8.561587212987273233e+03,8.467078459650481818e+03,8.420789324810495600e+03,8.322727577465586364e+03,8.273390944466256769e+03,8.172757636970956810e+03,8.121367900585435564e+03,8.069341025067580631e+03,7.966838806841464248e+03,7.914359808337379945e+03,7.811978502503247000e+03,7.760129926688736305e+03,7.677518723051936831e+03,7.577129374583775643e+03,7.509712557260121685e+03,7.462161142788158031e+03,7.416258790399413556e+03,7.322057919243205106e+03,7.261881048769457266e+03,7.222010680043080356e+03,7.166459438545163721e+03,7.163534288209950319e+03,7.113121843755681766e+03,7.065390848108712817e+03,7.020369266902474919e+03,7.010468217703572009e+03,7.021129884608206339e+03,7.016784962211095262e+03,7.015194040248170495e+03,7.016301013479998801e+03,7.020026946788158966e+03,7.026271116087300470e+03,7.017102374449226772e+03,7.060298297296627425e+03,7.073321992752345977e+03,7.120565845740464283e+03,7.169542107632179977e+03,7.169934097663179273e+03,7.221818129177991068e+03,7.274857873690023553e+03,7.310659413375484291e+03,7.365289424879883882e+03,7.420433778627892025e+03,7.425700136256782571e+03,7.512932693832641235e+03,7.518104298573656706e+03,7.573022632592765149e+03,7.627403560389357153e+03,7.662461130782874534e+03,7.715133605154929683e+03,7.766746429379476467e+03,7.817153496995917521e+03,7.816121994678367628e+03,7.863762539057235699e+03,7.909872340965550393e+03,7.923214768808567896e+03,7.916061045051785186e+03,7.926155738232162548e+03,7.965888781309942715e+03,7.972801427843485726e+03,7.978149743266374571e+03,8.013153447434422560e+03,8.015552969591139117e+03,8.016579763347253902e+03,8.016323343775642570e+03,8.014881954590207897e+03,8.012360582033317769e+03,7.977718030667223502e+03,7.973385322941059712e+03,7.968310475642327219e+03,7.962604551336757140e+03
8.677295359338400885e+03,8.667382996850792551e+03,8.627633467802137602e+03,8.619114174800371984e+03,8.611503191655036062e+03,8.574440081437438494e+03,8.569059908986353548e+03,8.564947996656352188e+03,8.562192386671813438e+03,8.560862368181376951e+03,8.561007434762548655e+03,8.562656464589992538e+03,8.565817133742559236e+03,8.570475570501032053e+03,8.576596255791897420e+03,8.614653558241843712e+03,8.623538074951007729e+03,8.664115142341004685e+03,8.675386518836894538e+03,8.718042397813464049e+03,8.711412271401990438e+03,8.725162305662175640e+03,8.769768918773683254e+03,8.814613770651107188e+03,8.829278465206734836e+03,8.874057514094776707e+03,8.868324477169197053e+03,8.912091509944351856e+03,8.924883544049633201e+03,8.966773788020014763e+03,8.977285782879538601e+03,8.966297886311484035e+03,8.973617433501203777e+03,8.979058247392327758e+03,9.012550895861291792e+03,9.013719816908502253e+03,9.012518154208315536e+03,8.978725460237532388e+03,8.972452908528735861e+03,8.963512864683958469e+03,8.971832410925271688e+03,8.927271924476342974e+03,8.910122112895420287e+03,8.860118881731876172e+03,8.827289676339394646e+03,8.771983527238364331e+03,8.714237932586052921e+03,8.673872323473333381e+03,8.611625704216217855e+03,8.567011747304612072e+03,8.470439978987735230e+03,8.422357855557347648e+03,8.322761786438873969e+03,8.272175941445049830e+03,8.170598451765807113e+03,8.118560653445631033e+03,8.066199921334278770e+03,7.963705668221722590e+03,7.911540170285676140e+03,7.809813207470899215e+03,7.727487686749052955e+03,7.677592941151146078e+03,7.610406542398850434e+03,7.513225704971584491e+03,7.467827361568692140e+03,7.424346591338631697e+03,7.364693601501872763e+03,7.275413262513233349e+03,7.270709945503651397e+03,7.218433226273366017e+03,7.168833448288147338e+03,7.172114205943827983e+03,7.160193218186759623e+03,7.118997043838578975e+03,7.112805279532214627e+03,7.109440863538329722e+03,7.076626327999692876e+03,7.111008578769076848e+03,7.115788136855349876e+03,7.123091907128167804e+03,7.164971849034947809e+03,7.158977749184210552e+03,7.173019722358323634e+03,7.221130925316771027e+03,7.270936697523633484e+03,7.272096129175071837e+03,7.324695880214829231e+03,7.410232260871125618e+03,7.414626623084070161e+03,7.469732862615172053e+03,7.525255901004071347e+03,7.562479357468779199e+03,7.618069176564895315e+03,7.673407643853832269e+03,7.709616088040987961e+03,7.763741790502506774e+03,7.817015450936072739e+03,7.819138425441429717e+03,7.870189640890981536e+03,7.919917249583522789e+03,7.918082197680312674e+03,7.964829148683056701e+03,8.009946962638670811e+03,8.022315220998571021e+03,8.064106258436630014e+03,8.073155982507538283e+03,8.061476970622083172e+03,8.067204876264731865e+03,8.071349996369070141e+03,8.073978990267321933e+03,8.075172749821533216e+03,8.075024563257640693e+03,8.073638138219073880e+03,8.071125513628649060e+03,8.067604891373513965e+03,8.063198419808089966e+03,8.077079677813017042e+03,8.071258866323536495e+03,8.064918900023563765e+03
8.766728909925674088e+03,8.726894336236815434e+03,8.717950644634140190e+03,8.729437226024601841e+03,8.721991253579762997e+03,8.715522881859680638e+03,8.710159284709487110e+03,8.675649677701963810e+03,8.672821196173230419e+03,8.671371810458455002e+03,8.671355879773356719e+03,8.672806944000418298e+03,8.675737094046315178e+03,8.710514166508481139e+03,8.716371734999149339e+03,8.723618256848363671e+03,8.712422420507267816e+03,8.722178078328142874e+03,8.763395797054312425e+03,8.775255610654276097e+03,8.818241158498654841e+03,8.861828093380579958e+03,8.875706325061793905e+03,8.869921518015587935e+03,8.914305049937247531e+03,8.928378509993897751e+03,8.972242384626355488e+03,8.965376097276370274e+03,8.977668515319586731e+03,9.019043915012909565e+03,9.029055792398343328e+03,9.067642476570443250e+03,9.074506264271389227e+03,9.079484973332233494e+03,9.112374676103529055e+03,9.113067545413185144e+03,9.111384358703042381e+03,9.077244507417752175e+03,9.070483225425501587e+03,9.061051887065987103e+03,9.018901049838081235e+03,8.973964943666767795e+03,8.976417120861384319e+03,8.926013529096118873e+03,8.872967060092749307e+03,8.867481313047144795e+03,8.779162664970237529e+03,8.718823635340930196e+03,8.676074381952581462e+03,8.611663030581956264e+03,8.565131656400248175e+03,8.466927547551837051e+03,8.417484735681733582e+03,8.316863658051035600e+03,8.265537144238769542e+03,8.163587579647806706e+03,8.111470446265622741e+03,8.028290946664666990e+03,7.926297135411936324e+03,7.875046537810732843e+03,7.824631529422884341e+03,7.725150418570090551e+03,7.677166982675611507e+03,7.612193885494547430e+03,7.517487217051413609e+03,7.474844983931456227e+03,7.416058573083748342e+03,7.409764888138888637e+03,7.324016120260261232e+03,7.272766482324688695e+03,7.274405377296730876e+03,7.260717510404472705e+03,7.217894729196879780e+03,7.209999898758484051e+03,7.172885898481938057e+03,7.170743838438182138e+03,7.171400316247425508e+03,7.174781948566203937e+03,7.212929380254179705e+03,7.221485390843823552e+03,7.264483366672386182e+03,7.259589104302052874e+03,7.274808222995459801e+03,7.323945530394586967e+03,7.374728783904225565e+03,7.426958176078362158e+03,7.462042011456273030e+03,7.516428397646493977e+03,7.521452291516994592e+03,7.577129392953560455e+03,7.664685176504746778e+03,7.670561535184038803e+03,7.726381348891620291e+03,7.813203803584532579e+03,7.817886346030601999e+03,7.871861992249265313e+03,7.924856157527770847e+03,7.926526209738687612e+03,7.977047960484487703e+03,8.026125631530652754e+03,8.073640483573777601e+03,8.069374169265793171e+03,8.113527622006018646e+03,8.124935848685941892e+03,8.165601578441157471e+03,8.173562260663107736e+03,8.160653610146953724e+03,8.165225780081906123e+03,8.168202665333083132e+03,8.169666219590726541e+03,8.169712767015240388e+03,8.168450971518614097e+03,8.165999661975685740e+03,8.162485545601899503e+03,8.177191173841536511e+03,8.171938911410776200e+03,8.166025857381697278e+03,8.159586642759939423e+03,8.121800238069787156e+03
8.878504032197030028e+03,8.869422855996992439e+03,8.860764778944198042e+03,8.822508966699271696e+03,8.815217467843292980e+03,8.778540326476912014e+03,8.773184652048599673e+03,8.768964915560965892e+03,8.765978777945594629e+03,8.764305113864887971e+03,8.764002868746727472e+03,8.765110148628766183e+03,8.767643553828151198e+03,8.771597764671576442e+03,8.776945384670543717e+03,8.813933243474864867e+03,8.821925431754527381e+03,8.861321566919243196e+03,8.871606662055564811e+03,8.862919417549739592e+03,8.874916412790276809e+03,8.917757611032284331e+03,8.960999584763834719e+03,8.974415474778914358e+03,8.967865613699192181e+03,9.011247344237461220e+03,9.024189706146687968e+03,9.066585620402562199e+03,9.078140658708289266e+03,9.118641785792919109e+03,9.127912445786234457e+03,9.115534396177274175e+03,9.121626550478220452e+03,9.125849451451300411e+03,9.128027739833021769e+03,9.128002442762401188e+03,9.125633024479786400e+03,9.120799258597719017e+03,9.113402900058863452e+03,9.123509334055939689e+03,9.110759856387041509e+03,9.065374254877795465e+03,9.017259197642386425e+03,8.966469765175075736e+03,8.963160979023610707e+03,8.877078810344391968e+03,8.868878042500233278e+03,8.778031619728979422e+03,8.715400752080109669e+03,8.670601892410544679e+03,8.573930323621287243e+03,8.525877773901447654e+03,8.476564448782650288e+03,8.376087437971902546e+03,8.325029440584679833e+03,8.223363014683098299e+03,8.171660970057622762e+03,8.069928696550196037e+03,8.018701038261759095e+03,7.918007317776442505e+03,7.868343512347841170e+03,7.819853797176969238e+03,7.722641458381869597e+03,7.677206717143941205e+03,7.615068499196320772e+03,7.573585649121552706e+03,7.515883700868987944e+03,7.460678507194999838e+03,7.426379102834180230e+03,7.376415468791819876e+03,7.361162572860892396e+03,7.316893900618568296e+03,7.275461844345962163e+03,7.268977557052945485e+03,7.265396430168970255e+03,7.264686569906683872e+03,7.266790115188312484e+03,7.271623995154572185e+03,7.311094724759343080e+03,7.321088453576870961e+03,7.365386689897452015e+03,7.411833673336863285e+03,7.410197454873064999e+03,7.460432555511186365e+03,7.512261445425363490e+03,7.515369535554171307e+03,7.569709526779595762e+03,7.624967804315092508e+03,7.662308049910323462e+03,7.718592412165016867e+03,7.775071080542926211e+03,7.812722787801059894e+03,7.868783356214844389e+03,7.924334782653342700e+03,7.960206342884019250e+03,8.014015684056415921e+03,8.066705310995777836e+03,8.067990323908510618e+03,8.117940745671192417e+03,8.166319282064272556e+03,8.162934440222859848e+03,8.176943327845510794e+03,8.220163610722520389e+03,8.261516807834210340e+03,8.270209734836214921e+03,8.277109265477920417e+03,8.313076420684432378e+03,8.316551971088512801e+03,8.318416444146976573e+03,8.318768413507932564e+03,8.317720980058482382e+03,8.315399525934568373e+03,8.311939320714387577e+03,8.276686043652996887e+03,8.271400752856541658e+03,8.265419029686279828e+03,8.228015153302752879e+03,8.221109363003342878e+03,8.213942482816404663e+03
8.972860777185822371e+03,8.964232403468282428e+03,8.925809789314633235e+03,8.918008895721053705e+03,8.910852927452215226e+03,8.874318386155064218e+03,8.868902849089878146e+03,8.864531382686749566e+03,8.861305587946932064e+03,8.879217032375861891e+03,8.878510252313542878e+03,8.879140912341419607e+03,8.861217322943994077e+03,8.864556931097817142e+03,8.869228572148218518e+03,8.875187516474601580e+03,8.912566958894953132e+03,8.920908756169490516e+03,8.960404637538391398e+03,8.970713357850967441e+03,8.961778561793791596e+03,8.973420686296885833e+03,9.015603717874648282e+03,9.027942810165986884e+03,9.070384756974468473e+03,9.112602423078235006e+03,9.124497410894226050e+03,9.115618755685572978e+03,9.126058875198737951e+03,9.165420591230475111e+03,9.173593755109934136e+03,9.210181993630190846e+03,9.215246902269427665e+03,9.218459543797973311e+03,9.219648152939334977e+03,9.218657359726843424e+03,9.215350247472379124e+03,9.179733239509980194e+03,9.171492563015664928e+03,9.160661722059507156e+03,9.117291903036471922e+03,9.121355585287732538e+03,9.072657386571459938e+03,9.021350311899586814e+03,8.967518645635514986e+03,8.961335679340758361e+03,8.872595380257407669e+03,8.861923345123388572e+03,8.768920579400612041e+03,8.724127663709281478e+03,8.627525175077520544e+03,8.560057921239960706e+03,8.511027605558017967e+03,8.461080673277698224e+03,8.360420403613650706e+03,8.278647043786739232e+03,8.177390672361972975e+03,8.126491376491234405e+03,8.076054124933783896e+03,7.976189894995331997e+03,7.927488795450917678e+03,7.861196803058352089e+03,7.815285590229526861e+03,7.720977769191318657e+03,7.660119284614716889e+03,7.620001626898156246e+03,7.563703003100963542e+03,7.509952634788322030e+03,7.477188101712497883e+03,7.460585644523001974e+03,7.415070428007980809e+03,7.422557828165910905e+03,7.414685684924595989e+03,7.409775730887398822e+03,7.375973007059597876e+03,7.376912910389102763e+03,7.412539441259956220e+03,7.419065467904496472e+03,7.409920905866863905e+03,7.421527529587270692e+03,7.467296041218680330e+03,7.515177880386472680e+03,7.514898683501902269e+03,7.566453440995363053e+03,7.619531856438930845e+03,7.673910672480502399e+03,7.710685199171508430e+03,7.766861276723211631e+03,7.823609382722061127e+03,7.861824781301751500e+03,7.918871440061513567e+03,7.925578326525137527e+03,8.013156084425223526e+03,8.068866931414755527e+03,8.073561371585907182e+03,8.127303779603331350e+03,8.160631990903464612e+03,8.211614229719707510e+03,8.261022913506138138e+03,8.277928884094988462e+03,8.323917746626888402e+03,8.317918883256730624e+03,8.360139545950951288e+03,8.369731698979419889e+03,8.377446296433481621e+03,8.414042661395622417e+03,8.418149488346389262e+03,8.420547523653280223e+03,8.421335313068993855e+03,8.420628197117242962e+03,8.418556042190175503e+03,8.415260785558202770e+03,8.410893830126966350e+03,8.374921534461929696e+03,8.368911617350269808e+03,8.362315654474397888e+03,8.324532671616558218e+03,8.317269968171080109e+03,8.309888662279670825e+03
9.069565451503265649e+03,9.061417688713932876e+03,9.023454643571749330e+03,9.015896463051612955e+03,8.978771037818019977e+03,8.972443213035847293e+03,8.966929943883442320e+03,8.962352906319487374e+03,8.978814298530051019e+03,8.976400599029468140e+03,8.975184310552955139e+03,8.975212198319088202e+03,8.976509820847189985e+03,8.979081065960926935e+03,8.962901472733996343e+03,8.967932969642308308e+03,8.974116464392980561e+03,9.011475121101131663e+03,9.019724201874050777e+03,9.028823220088845119e+03,9.068695157949754503e+03,9.079095427648426266e+03,9.119882188417599536e+03,9.110754848531272728e+03,9.121771770288294647e+03,9.162552121488522971e+03,9.173017438652517740e+03,9.212760864227428101e+03,9.221825197811180260e+03,9.229854367674270179e+03,9.266474660190055147e+03,9.271836624550778652e+03,9.275560066018661018e+03,9.277465189808746800e+03,9.277386266543238889e+03,9.275173829423729330e+03,9.270696716215636116e+03,9.263843932213116204e+03,9.224731519868888427e+03,9.212921313431230374e+03,9.168706129153870279e+03,9.121889606817683671e+03,9.122631123937782831e+03,9.070733372156333644e+03,9.016403888332715724e+03,8.979754748228442622e+03,8.920837248002004344e+03,8.879803002859902335e+03,8.816918225064553553e+03,8.722062884642684367e+03,8.675768224028695840e+03,8.578000866796093760e+03,8.559861563589482103e+03,8.460342371324397391e+03,8.410340808460023254e+03,8.310011352461122442e+03,8.259753599823190598e+03,8.159724898725049570e+03,8.110318646915053250e+03,8.061748721351643326e+03,7.964192598873283714e+03,7.918061412946146447e+03,7.823376455980236642e+03,7.811992899402277544e+03,7.721191862804116681e+03,7.664077204657514812e+03,7.659491719356738031e+03,7.575811496856913436e+03,7.576561286412063055e+03,7.511531579997157678e+03,7.517946055273700040e+03,7.477169951413117815e+03,7.471136866963031935e+03,7.468079277896671556e+03,7.467973118466179585e+03,7.470766894680651603e+03,7.476382284855702892e+03,7.516480026736302534e+03,7.527447569475072669e+03,7.522424411059881095e+03,7.569818201664806111e+03,7.619279784205427859e+03,7.670622063119197264e+03,7.673485698605101788e+03,7.759366601089888718e+03,7.814964465820230544e+03,7.821393393261707388e+03,7.909887568448757520e+03,7.917420345348713454e+03,7.975209609875659226e+03,8.064032487064134330e+03,8.071265029768983368e+03,8.128025493898108834e+03,8.164826207100297324e+03,8.219694970372045645e+03,8.273347026730159996e+03,8.325595595616381615e+03,8.326116805463127093e+03,8.375087969418207649e+03,8.422234614038956352e+03,8.467461140203115065e+03,8.460634562578750774e+03,8.471307019014639081e+03,8.510628895489615388e+03,8.517426865666609956e+03,8.522334921639325330e+03,8.525428431134554558e+03,8.526803938671975629e+03,8.526577173218043754e+03,8.524880796716694022e+03,8.521861925945850089e+03,8.517679463479551487e+03,8.512501276367052924e+03,8.475903165574040031e+03,8.469282157792738872e+03,8.462194869285798632e+03,8.474295742876478471e+03,8.466772580684424611e+03,8.428648436374642188e+03
9.168502878931351006e+03,9.160872021287563257e+03,9.123386106428370113e+03,9.116085987205762649e+03,9.129340067866840400e+03,9.122979847684706328e+03,9.117312727530865232e+03,9.112462982682773145e+03,9.078576866649789736e+03,9.075676999514806084e+03,9.073859454304591054e+03,9.073174727438541595e+03,9.073652526878315257e+03,9.075301294020173373e+03,9.078107987498631701e+03,9.112011121378542157e+03,9.117025608688185457e+03,9.123035063070332399e+03,9.129943281161366031e+03,9.117463951323676156e+03,9.125789058048772858e+03,9.164575610244413838e+03,9.173772881436452735e+03,9.213024406425625784e+03,9.222399296014948050e+03,9.261378163147426676e+03,9.270155996114510344e+03,9.278316506339149782e+03,9.265336574807559373e+03,9.271637096766033210e+03,9.276717313428060152e+03,9.310177686890732730e+03,9.312258882691763574e+03,9.312569711675547296e+03,9.310952743195666699e+03,9.277484001221513608e+03,9.271623989010171499e+03,9.263475115420093061e+03,9.273247104096953990e+03,9.260269376630982151e+03,9.215057876870996552e+03,9.167350527089991374e+03,9.117186534602456959e+03,9.114711591233499348e+03,9.029795095410227077e+03,8.972668529675982427e+03,8.963564742702583317e+03,8.872266463972453494e+03,8.829231396358663915e+03,8.764744694431021344e+03,8.718690394440316595e+03,8.621330476556147914e+03,8.573143817589909304e+03,8.474133842204464599e+03,8.424844972383667482e+03,8.325259622487967135e+03,8.275951700314501068e+03,8.176883319773623953e+03,8.159624082185910083e+03,8.062292064792971360e+03,8.016220401999366004e+03,7.921465483669278910e+03,7.909751013184664771e+03,7.818627356097829761e+03,7.811037980741937645e+03,7.724294340321532218e+03,7.671446669578232104e+03,7.671386625253333477e+03,7.623947551069170004e+03,7.610969157743675169e+03,7.569342646432545735e+03,7.562325515906908549e+03,7.576788510874583153e+03,7.575762809747626306e+03,7.559221462125249673e+03,7.564054717544990126e+03,7.571695850945892744e+03,7.613671712595241843e+03,7.626611588764324551e+03,7.673556075287779095e+03,7.672558553030481562e+03,7.723727423627657117e+03,7.776709609578072559e+03,7.812507521547639044e+03,7.868359008451283444e+03,7.925324182512995321e+03,7.964184682654973585e+03,8.022508617043640697e+03,8.062100486712588463e+03,8.120718669609224889e+03,8.159978747232002206e+03,8.217841816146130441e+03,8.274996643971913727e+03,8.311876696924329735e+03,8.366837399285694119e+03,8.420430685556784738e+03,8.472472511356056202e+03,8.472666709686018294e+03,8.521153027597698383e+03,8.567686142383754486e+03,8.562109266416169703e+03,8.574054008515289752e+03,8.614480412734526908e+03,8.622372178101039026e+03,8.628268538215314038e+03,8.662692902615002822e+03,8.664835819413507124e+03,8.665252291963319294e+03,8.664076216347370064e+03,8.661458555870573036e+03,8.627128022955439519e+03,8.622152205224352656e+03,8.616265361218247563e+03,8.579143614459753735e+03,8.572031442215724383e+03,8.564581682682008250e+03,8.576561062329739798e+03,8.568967886267608264e+03,8.561568632038455689e+03
