2.082091102739729104e+04,2.083114796360756736e+04,2.083612602092709858e+04,2.083750717185143731e+04,2.083533354345615953e+04,2.082966091612132732e+04,2.081892535460690851e+04,2.080647730035713175e+04,2.079077877749982872e+04,2.077030149193521356e+04,2.074844307684610249e+04,2.072205695240400382e+04,2.069457244764818461e+04,2.066285736427360098e+04,2.063036813725865795e+04,2.059398539626313141e+04,2.055553601857260219e+04,2.051520938088427647e+04,2.047486135719096637e+04,2.043137446396035375e+04,2.038660778877953999e+04,2.034076617011590861e+04,2.029405506586498814e+04,2.024667918776648003e+04,2.019884112091173301e+04,2.015073994025180582e+04,2.010256983637955273e+04,2.005451876309668296e+04,2.000676711938518565e+04,1.995948647837596945e+04,1.991283837574362406e+04,1.986697316965667414e+04,1.982202898397581885e+04,1.977984902508847881e+04,1.973711246975910035e+04,1.969562894700653851e+04,1.965547912316574366e+04,1.966689841524732765e+04,1.963123846716014668e+04,1.959545517298515188e+04,1.956117054749137606e+04,1.953000306633283617e+04,1.949870234122310649e+04,1.946884927249085740e+04,1.944202398291870486e+04,1.941491239198300173e+04,1.939069274815215613e+04,1.936601651487630443e+04,1.934404536220274167e+04,1.932139974414528115e+04,1.930123032270083786e+04,1.928177099709879258e+04,1.926124772435816703e+04,1.924279825328208972e+04,1.922463875092420494e+04,1.920498174975652364e+04,1.918696731036077836e+04,1.916716103925844072e+04,1.914871863639590447e+04,1.912985621018477832e+04,1.910879469832184259e+04,1.908871702915886999e+04,1.906620511242240900e+04,1.904447280415883870e+04,1.902011630360601703e+04,1.899638517823134316e+04,1.896989535913229338e+04,1.894393584372411715e+04,1.891514681585770450e+04,1.888685921327976394e+04,1.885574086999520659e+04,1.882516587051551323e+04,1.879183180917889695e+04,1.875747536887583556e+04,1.872217974177075666e+04,1.868773759829881601e+04,1.865088924804423004e+04,1.861345544782816432e+04,1.857728612903851899e+04,1.853915251089853700e+04,1.850092706070165150e+04,1.846280029785350780e+04,1.842668645786491106e+04,1.838937563434740878e+04,1.835279315000705537e+04,1.831716275511970161e+04,1.828443960709474050e+04,1.825140507736161817e+04,1.822001077985411393e+04,1.819222274815090350e+04,1.816479825462141889e+04,1.814142987277742941e+04,1.811885366985705332e+04,1.810075573957801680e+04,1.808558793986745877e+04,1.812198629367721151e+04,1.811318592485727277e+04,1.810782645944319665e+04,1.810604404172193608e+04,1.810795697440719232e+04,1.811366467169969110e+04,1.807478888575625024e+04,1.808826835002435837e+04,1.810570873004119494e+04,1.812886725875953562e+04,1.815425972859197645e+04,1.818533464501079288e+04,1.821857327631540829e+04,1.825737388074488263e+04,1.829991014072802500e+04,1.834607211834663758e+04,1.839573029339424102e+04,1.844873645230772672e+04,1.850492471047025174e+04,1.856411265704507241e+04,1.862779784857630148e+04,1.869237511965274462e+04,1.875931894253840437e+04,1.883007218067834037e+04
2.087007215522922343e+04,2.088124323532986455e+04,2.088707306439097738e+04,2.088921487917166087e+04,2.088770688193762908e+04,2.088260194525215775e+04,2.087233784523094073e+04,2.086025723221374210e+04,2.084482620485342341e+04,2.082615542771108449e+04,2.080273723238712410e+04,2.077797522566653788e+04,2.074875025005839416e+04,2.071685695398689131e+04,2.068411480444038170e+04,2.064742049733779277e+04,2.060860738102628966e+04,2.056787581317467266e+04,2.052708977523102658e+04,2.048315185762543115e+04,2.043793073175163590e+04,2.039164503445161972e+04,2.034451440038305009e+04,2.029675794742145808e+04,2.024859274027906940e+04,2.020023224585538264e+04,2.015188479428965366e+04,2.010375205999932950e+04,2.005602757714793552e+04,2.000889530399336945e+04,1.996252825041356846e+04,1.991708718259705347e+04,1.987442883663639077e+04,1.983127192093120539e+04,1.978943845256295754e+04,1.974902928288761177e+04,1.971012814737635199e+04,1.967452738015513751e+04,1.963882786114441114e+04,1.965492019012122182e+04,1.962258077557466459e+04,1.959351786222247756e+04,1.956447872324706987e+04,1.953865106815073523e+04,1.951274018411251018e+04,1.948990756642544875e+04,1.946681840795947937e+04,1.944661261124047451e+04,1.942754580981665640e+04,1.940786009601480328e+04,1.939066582161677070e+04,1.937255290830490412e+04,1.935662592094505089e+04,1.934108780038834084e+04,1.932577021645513014e+04,1.930886888269867632e+04,1.929348297554528108e+04,1.927780883884947980e+04,1.926004371123088640e+04,1.924330678528794670e+04,1.922580721198540414e+04,1.920576109154458391e+04,1.918632339496584609e+04,1.916408549712365493e+04,1.914223924081621226e+04,1.911739627006254159e+04,1.909279006702359766e+04,1.906505836886764155e+04,1.903747977212749538e+04,1.900672278544754954e+04,1.897611316330690170e+04,1.894235350907559041e+04,1.890714982050770777e+04,1.887057001178912469e+04,1.883438092702205176e+04,1.879533998141184566e+04,1.875524845369235845e+04,1.871425353159391670e+04,1.867421077016089112e+04,1.863192604523498449e+04,1.858928193147754064e+04,1.854648958115759888e+04,1.850377249358186964e+04,1.846136478495004121e+04,1.841950934743718244e+04,1.838017377396597294e+04,1.834018240095852525e+04,1.830150507747422671e+04,1.826439980660035508e+04,1.823085477094355156e+04,1.819766581951748230e+04,1.816680585616119788e+04,1.814025617598270765e+04,1.811476982837310061e+04,1.809404676282315631e+04,1.807655049660982331e+04,1.811089601540207514e+04,1.810037878158790409e+04,1.809361679551494308e+04,1.809074576632006210e+04,1.809188054820874822e+04,1.809711414753025747e+04,1.810651691046211636e+04,1.812013589745183708e+04,1.808949713735378464e+04,1.811153554763025022e+04,1.813951876608782914e+04,1.816991782424211851e+04,1.820613882525821100e+04,1.824634639692833298e+04,1.829042462119989796e+04,1.833823612628679257e+04,1.838962310091231484e+04,1.844440845690647257e+04,1.850239712760251132e+04,1.856337748832706711e+04,1.862881821524456609e+04,1.869508564343690523e+04,1.876362647376858513e+04
2.091393940704877605e+04,2.092620859796818695e+04,2.093306851350690704e+04,2.093616177525272360e+04,2.093552116850193124e+04,2.093119517619555700e+04,2.092162213583363337e+04,2.091013486381879193e+04,2.089520249738881830e+04,2.087693612763448618e+04,2.085383354231048725e+04,2.082929398106728331e+04,2.080021014720492531e+04,2.076837873722868972e+04,2.073562252717197407e+04,2.069885396295049577e+04,2.065991215198949794e+04,2.061900802999688312e+04,2.057801332381449174e+04,2.053385074526691460e+04,2.048839842050048173e+04,2.044188888125622179e+04,2.039455614845198579e+04,2.034663406086532632e+04,2.029835457386411144e+04,2.024994604343207902e+04,2.020163151129829930e+04,2.015362700737779960e+04,2.010613988595255069e+04,2.005936721206904622e+04,2.001349421449226793e+04,1.996869282123594894e+04,1.992682575211836956e+04,1.988462826617012615e+04,1.984392543530304101e+04,1.980482353049007361e+04,1.976740995266317623e+04,1.973347538412408903e+04,1.969962765786019736e+04,1.966761157264036592e+04,1.963916592018661322e+04,1.966097525120127830e+04,1.963609295712623862e+04,1.961134767222360824e+04,1.958988871202722657e+04,1.956839882417485933e+04,1.955000035685286275e+04,1.953295254828454927e+04,1.951549751775467303e+04,1.950072010934172431e+04,1.948683574923558626e+04,1.947204644628803362e+04,1.945941573322375189e+04,1.944712990945987985e+04,1.943499498261063127e+04,1.942118782760537579e+04,1.940876699837896740e+04,1.939591032313628239e+04,1.938242775803810218e+04,1.936650497953890590e+04,1.935122914919743198e+04,1.933480357249223744e+04,1.931544109854326234e+04,1.929627421475830488e+04,1.927554435989956255e+04,1.925150900386518333e+04,1.922735919887371711e+04,1.919974800530503853e+04,1.917026866338693071e+04,1.914055220496340189e+04,1.910729833568519098e+04,1.907217824105499312e+04,1.903690047002697247e+04,1.899821811428881483e+04,1.895788103323621908e+04,1.891600587298307801e+04,1.887440454204735579e+04,1.882989569484445383e+04,1.878432785727165174e+04,1.873790027229796397e+04,1.869082966937570018e+04,1.864334863541804953e+04,1.859570382726128446e+04,1.854815404187195236e+04,1.850096816196589498e+04,1.845442299593758071e+04,1.840880103204253828e+04,1.836438812761422014e+04,1.832147115473242593e+04,1.828206279118140810e+04,1.824299611704234849e+04,1.820626860144286184e+04,1.817214755738285021e+04,1.814263171491739922e+04,1.811448760888967081e+04,1.809142651819475577e+04,1.812036986915560556e+04,1.810456985914078541e+04,1.809270413512887899e+04,1.808492621205517207e+04,1.808136666867189342e+04,1.808213205389186624e+04,1.808730399637963274e+04,1.809693852414155845e+04,1.811106559876300162e+04,1.808121376287643216e+04,1.810424876869903528e+04,1.813343775531431311e+04,1.816522699127948727e+04,1.820299388207524316e+04,1.824487462791349390e+04,1.829072322755417554e+04,1.834037145221806713e+04,1.839363016217283439e+04,1.845029077292594593e+04,1.851012685528967995e+04,1.857459523061697837e+04,1.864003724843636155e+04,1.870788625716979732e+04
2.095261391484859632e+04,2.096452972035872517e+04,2.097422686546470504e+04,2.097847050011897227e+04,2.097890797844991903e+04,2.097558176168738282e+04,2.096692942495795432e+04,2.095627177582576405e+04,2.094207977010568720e+04,2.092446346461039502e+04,2.090192493888919125e+04,2.087785732407556497e+04,2.084916441368887899e+04,2.081764366313570645e+04,2.078512006501521682e+04,2.074852129391842755e+04,2.070969136543225613e+04,2.066885123813335667e+04,2.062787989894076600e+04,2.058372005032122252e+04,2.053825903929508058e+04,2.049174327362698386e+04,2.044442126597341849e+04,2.039654179886035854e+04,2.034835205016820692e+04,2.030009569622908020e+04,2.025201101032251609e+04,2.020432897484998102e+04,2.015727142576462938e+04,2.011104924792487873e+04,2.006586063992587151e+04,2.002188946664080140e+04,1.998100538685059291e+04,1.993996066825828166e+04,1.990058435542677762e+04,1.986298887267534155e+04,1.982897997343249153e+04,1.979520558917475864e+04,1.976342257357772905e+04,1.973537975138577167e+04,1.970764055313746212e+04,1.968362967023940291e+04,1.965985773634747602e+04,1.963971366317503271e+04,1.966983377822011244e+04,1.965317643725866219e+04,1.963811019852934987e+04,1.962449234042665921e+04,1.961055351816880284e+04,1.959933994181451271e+04,1.958905286285653710e+04,1.957949306725381757e+04,1.956883741660232772e+04,1.956010009360098047e+04,1.955144514105748385e+04,1.954264933901021141e+04,1.953348923490598099e+04,1.952212465008682921e+04,1.951157748303766130e+04,1.950001823387609329e+04,1.948724633826696663e+04,1.947144986065066769e+04,1.945570045426511206e+04,1.943821439799922518e+04,1.941722307966888184e+04,1.939585881657793652e+04,1.937076082735002274e+04,1.934511396996295662e+04,1.931559508571188780e+04,1.928544497118750587e+04,1.925138346634982736e+04,1.921506599837783142e+04,1.917818752727404353e+04,1.913753022642814904e+04,1.909483607774012489e+04,1.905022972744397703e+04,1.900386061658733524e+04,1.895590203019609908e+04,1.890654991565865930e+04,1.885602148056577425e+04,1.880455358243695810e+04,1.875240092483558692e+04,1.869983407630689908e+04,1.864713733034065808e+04,1.859460642614762764e+04,1.854254615142697003e+04,1.849126784947622218e+04,1.844108685394420172e+04,1.839231987523761927e+04,1.834528236305958126e+04,1.830028586977440864e+04,1.825763543925664271e+04,1.821762704559424310e+04,1.818228152171077090e+04,1.814840270287965541e+04,1.811797542915644590e+04,1.809298240147723118e+04,1.812034787580309785e+04,1.810332077744023991e+04,1.809057927837854368e+04,1.808226976834784728e+04,1.807851231438061222e+04,1.807939969261499937e+04,1.808499665494085639e+04,1.809533943547666422e+04,1.811043549944358529e+04,1.808178689410397783e+04,1.810623150712548522e+04,1.813700950743394787e+04,1.817053603324847063e+04,1.821015744903209270e+04,1.825397674171865219e+04,1.830181437665264821e+04,1.835346826062822947e+04,1.840871539037479670e+04,1.846731364695291268e+04,1.853070811199548189e+04,1.859521238420263398e+04,1.866224669495463604e+04
2.098627286876383005e+04,2.099963693704214529e+04,2.100911889852050808e+04,2.101471835418819683e+04,2.101645222170770285e+04,2.101435516537827789e+04,2.100847990570866386e+04,2.099889739827241283e+04,2.098569687272794545e+04,2.096736388544234796e+04,2.094726896672838484e+04,2.092230576525122160e+04,2.089588798209017841e+04,2.086493442369825789e+04,2.083289705001201946e+04,2.079671802507224493e+04,2.075824528158982866e+04,2.071770908633779618e+04,2.067699507309391629e+04,2.063306560726655880e+04,2.058781691052482347e+04,2.054150911932461895e+04,2.049440522528864676e+04,2.044676907036139164e+04,2.039886329149876838e+04,2.035094723397653433e+04,2.030327485321724089e+04,2.025609262563718949e+04,2.020963748939218931e+04,2.016413483604969224e+04,2.011979657412614324e+04,2.007851251082782983e+04,2.003708054966171039e+04,1.999735012131137773e+04,1.995946199731773231e+04,1.992524088061129441e+04,1.989137856506105163e+04,1.985964853175426833e+04,1.983181443112547277e+04,1.980447879815491615e+04,1.978106833786141942e+04,1.975812806084408658e+04,1.973904387604916701e+04,1.972030256909952732e+04,1.970525260452751536e+04,1.969205160547062405e+04,1.968055907185806427e+04,1.966888848445966141e+04,1.966031341320447973e+04,1.965291124085444608e+04,1.964647137562913122e+04,1.964077053893383709e+04,1.963557501651771599e+04,1.963064303331702831e+04,1.962572723003965802e+04,1.966902308797539445e+04,1.966337414612848079e+04,1.965698978769150563e+04,1.964962568404941703e+04,1.964104500779468799e+04,1.963102101217786549e+04,1.961772903874309850e+04,1.960419202992235660e+04,1.958861665679293219e+04,1.956922584165009903e+04,1.954910942163562868e+04,1.952653341923424159e+04,1.949978765723633114e+04,1.947041866488053347e+04,1.944001558942697011e+04,1.940531598018389195e+04,1.936796016393025639e+04,1.932963034783993498e+04,1.928713552362500923e+04,1.924221080312950653e+04,1.919498888682812685e+04,1.914563001184558379e+04,1.909432091283189948e+04,1.904127352650466491e+04,1.898672345119673992e+04,1.893092817520155222e+04,1.887249199676944409e+04,1.881505255839487654e+04,1.875725090983798145e+04,1.869941033809431246e+04,1.864186432803192292e+04,1.858495381104992703e+04,1.852902433370755170e+04,1.847442317308890051e+04,1.841978390149300685e+04,1.836886913724150509e+04,1.832030558919819305e+04,1.827614507643994875e+04,1.823325233446009224e+04,1.819364655439896160e+04,1.815760761420681956e+04,1.812713595492363675e+04,1.809899490436507040e+04,1.807687748286078568e+04,1.810764827710084501e+04,1.809460170058539370e+04,1.808633458789583528e+04,1.808295053207725869e+04,1.808452257974905660e+04,1.809109271425675252e+04,1.810267160796604003e+04,1.811923864355625119e+04,1.809223754316323902e+04,1.811852507364863413e+04,1.815128553655161522e+04,1.818863362601422705e+04,1.823040339890221367e+04,1.827640303950526868e+04,1.832641652666256414e+04,1.838020547937974334e+04,1.843751116056280443e+04,1.849805661714659072e+04,1.856154893380100839e+04,1.862937695837623323e+04
2.101354627305263421e+04,2.103015559351269621e+04,2.104124087646495900e+04,2.104840796498066629e+04,2.105166308024924365e+04,2.105103119349310873e+04,2.104655647187310387e+04,2.103830258157139178e+04,2.102635283704570611e+04,2.100919272661875584e+04,2.099018103252450237e+04,2.096621882162417751e+04,2.094071158403027221e+04,2.091058858236708329e+04,2.087929713392604026e+04,2.084379292623192305e+04,2.080592667859885842e+04,2.076593708674173104e+04,2.072571568680703058e+04,2.068224396653610165e+04,2.063742655677476432e+04,2.059153703472632333e+04,2.054485272628514213e+04,2.049765252626471920e+04,2.045021465571384761e+04,2.040281437750285841e+04,2.035572169232269516e+04,2.030919903796139988e+04,2.026349901519221021e+04,2.021886216381797567e+04,2.017719977607566398e+04,2.013535673861051328e+04,2.009520529871428153e+04,2.005691734625806566e+04,2.002064314645779086e+04,1.998821217289904598e+04,1.995632842255680589e+04,1.992847181296418421e+04,1.990128860773515771e+04,1.987821286023635184e+04,1.985582918897870695e+04,1.983752615434909239e+04,1.981982477778458269e+04,1.980607058262938517e+04,1.979444069168856367e+04,1.978480215489279362e+04,1.977699843522795709e+04,1.976913337533213780e+04,1.976444329112957348e+04,1.976099256960561615e+04,1.975854723188083153e+04,1.975685919863439631e+04,1.975566874910288607e+04,1.975470711949485121e+04,1.975369921665231232e+04,1.975236642138339812e+04,1.975042945473853615e+04,1.974761127961627790e+04,1.974364000947881141e+04,1.973825179563605343e+04,1.973119366452971008e+04,1.972050443453621119e+04,1.970940570666288841e+04,1.969597062829739298e+04,1.968001613835629541e+04,1.965965738355988287e+04,1.963821211914136074e+04,1.966227549536529114e+04,1.963484267595797428e+04,1.960274471567146247e+04,1.956757016904966440e+04,1.953095252303630696e+04,1.948970348551214556e+04,1.944551540348140406e+04,1.939849786623450927e+04,1.934879165309399832e+04,1.929656789582871716e+04,1.924202694842184428e+04,1.918539697382849408e+04,1.912693226020989823e+04,1.906525586958523490e+04,1.900397586765172309e+04,1.894176025510200998e+04,1.887894612998494995e+04,1.881420818303013220e+04,1.875125931058780407e+04,1.868879703103151405e+04,1.862719761316661607e+04,1.856514072459074669e+04,1.850639726483976119e+04,1.844964490483395639e+04,1.839524902214514441e+04,1.834356442229909590e+04,1.829493233600794338e+04,1.824967753727492527e+04,1.820810560950028594e+04,1.817050038514946937e+04,1.813886328228758066e+04,1.810995107785737491e+04,1.808745079560938757e+04,1.811824216776751564e+04,1.810554806768536218e+04,1.809797419609624194e+04,1.809560127332521370e+04,1.809847632969214465e+04,1.810661246802480309e+04,1.811998892299568979e+04,1.809005261320018326e+04,1.811365071722088032e+04,1.814395745804844773e+04,1.817907828206967679e+04,1.821710527096650912e+04,1.826129949107512948e+04,1.830969392508527380e+04,1.836203389205792337e+04,1.841804316459764959e+04,1.847913507306060637e+04,1.854157673992303899e+04,1.860675432171532884e+04
2.103798776473282487e+04,2.105478694953920785e+04,2.106767408363369759e+04,2.107823879772852524e+04,2.108324488586859661e+04,2.108431999801885104e+04,2.108149773005343741e+04,2.107483245170733426e+04,2.106278557837413973e+04,2.104868277653760742e+04,2.103102686388578149e+04,2.100833884029588080e+04,2.098401404377858853e+04,2.095499082567088772e+04,2.092471022837405326e+04,2.089014026574054151e+04,2.085313317638426088e+04,2.081393503853745642e+04,2.077444241311409860e+04,2.073165514397263178e+04,2.068748568041445105e+04,2.064222060093106120e+04,2.059615127631058567e+04,2.054957151098601753e+04,2.050277510753547540e+04,2.045605337772268103e+04,2.040969262458788580e+04,2.036397162095131353e+04,2.031915911026272806e+04,2.027718824558024062e+04,2.023495132747307071e+04,2.019434501204089611e+04,2.015557431507355068e+04,2.011882297156419372e+04,2.008594546240585623e+04,2.005369558664149372e+04,2.002556864501966629e+04,1.999825894286658149e+04,1.997521308088689693e+04,1.995306043696298730e+04,1.993519795912716654e+04,1.991818669891302125e+04,1.990537526855361648e+04,1.989496642114623683e+04,1.988684095659229206e+04,1.988085256367002148e+04,1.987682911580690416e+04,1.987457423563208431e+04,1.987215974589576945e+04,1.987447458218352403e+04,1.987613337801361922e+04,1.987857265479638590e+04,1.988150664136637351e+04,1.988463947009562980e+04,1.988766813256937894e+04,1.989028553685190855e+04,1.989218363699561451e+04,1.989305660444288515e+04,1.989260401027504122e+04,1.989053398688681773e+04,1.988656633760721888e+04,1.988043556306030951e+04,1.987018457347663934e+04,1.985900521995101008e+04,1.984498304990833276e+04,1.982793891694856575e+04,1.980600906074800878e+04,1.978249770147248637e+04,1.975388376792351482e+04,1.972182179236871889e+04,1.968801521333586425e+04,1.964902462826360716e+04,1.965676184833128355e+04,1.961102845506256563e+04,1.956206424574053381e+04,1.951001807603306952e+04,1.945507202031117049e+04,1.939744014796713600e+04,1.933736698908201652e+04,1.927512570311923628e+04,1.920937361144332681e+04,1.914371643348241923e+04,1.907686008230797597e+04,1.900750963209752808e+04,1.893936009082096280e+04,1.886947458395242575e+04,1.880159749496850418e+04,1.873446594027447281e+04,1.866679956643722835e+04,1.860238377470290288e+04,1.853993541842268314e+04,1.847985035726378555e+04,1.842080042228879756e+04,1.836657649126881734e+04,1.831582168078023824e+04,1.826886711418788764e+04,1.822775170322612394e+04,1.818929987482805154e+04,1.815549070800698246e+04,1.812828736798203317e+04,1.810440587277922896e+04,1.808748293556430144e+04,1.807590095665917033e+04,1.811819164216169156e+04,1.811751551639879472e+04,1.812234803141816519e+04,1.808418421463872073e+04,1.809989012064484996e+04,1.812091722260799725e+04,1.814888094154375722e+04,1.818187523446785053e+04,1.821797956566032371e+04,1.826044099618188920e+04,1.830727631786096026e+04,1.835821356226809439e+04,1.841295808913157089e+04,1.847119520733776153e+04,1.853429764765634900e+04,1.859850634641959914e+04
2.105673099208471831e+04,2.107713474728082656e+04,2.109202572335832519e+04,2.110297654322805465e+04,2.110996601611492224e+04,2.111299360995783354e+04,2.111208023008840973e+04,2.110726882972486783e+04,2.109862483686767519e+04,2.108623638408913394e+04,2.106859987773594912e+04,2.104907910591788823e+04,2.102621387430501636e+04,2.099856448539797566e+04,2.096794209880637936e+04,2.093619127722355188e+04,2.090029872883961070e+04,2.086213858452605200e+04,2.082197786530555459e+04,2.078173443195098662e+04,2.073842716978327371e+04,2.069398861217938247e+04,2.064872372926346725e+04,2.060294094158723601e+04,2.055694948766237940e+04,2.051105672492412850e+04,2.046556539111593156e+04,2.042077085408076528e+04,2.037862738987637567e+04,2.033607405267565628e+04,2.029503247462058789e+04,2.025574184035509825e+04,2.021842104719154304e+04,2.018495209904332296e+04,2.015214114127311041e+04,2.012181401322165038e+04,2.009578295554724173e+04,2.007075309843290597e+04,2.005017023861629423e+04,2.003236719157526386e+04,2.001564343839758658e+04,2.000335682820816874e+04,1.999374203617812600e+04,1.998670012020444847e+04,1.998210161070493632e+04,1.997978757080883952e+04,1.997957096199059743e+04,1.998123830516554881e+04,1.998455162407457829e+04,1.998925065470769187e+04,1.999505530158409965e+04,2.000166831895231735e+04,2.000877819242846454e+04,2.001606219428469194e+04,2.002488660784219974e+04,2.003152250701031880e+04,2.003732954119815258e+04,2.004197308291101945e+04,2.004512410885875579e+04,2.004646264150715433e+04,2.004568113681187970e+04,2.004248778392502572e+04,2.003660968329620664e+04,2.002779587057221215e+04,2.001412389908207115e+04,1.999878878666876699e+04,1.997992426070451620e+04,1.995569354814579128e+04,1.992939480122449459e+04,1.989755516320251627e+04,1.986184348091707216e+04,1.982226619409496197e+04,1.978058581062374287e+04,1.973345212653980707e+04,1.968269830631988589e+04,1.962848093467360013e+04,1.961943566457633278e+04,1.955887369903459330e+04,1.949552136127997073e+04,1.942967073994927341e+04,1.936001273310193210e+04,1.929015226930147037e+04,1.921718950719657005e+04,1.914479931129637407e+04,1.907009329527712543e+04,1.899680274203937734e+04,1.892203714962385129e+04,1.884957000625476940e+04,1.877817569406935945e+04,1.870660928909058566e+04,1.863867225657639210e+04,1.857140940467588371e+04,1.850862979299415019e+04,1.844903515577627695e+04,1.839300420795465470e+04,1.834089320192587911e+04,1.829303292365494417e+04,1.824972592887721839e+04,1.821124404533643974e+04,1.817956232070349506e+04,1.815141924555291189e+04,1.813045333783078240e+04,1.811332068470778177e+04,1.810359422978368821e+04,1.809958723197178915e+04,1.810131462774652755e+04,1.810875230139063206e+04,1.812183759736409411e+04,1.814221219518780708e+04,1.816625751659259549e+04,1.819727977390881279e+04,1.823333335037034703e+04,1.827418339330068557e+04,1.831784467812097864e+04,1.836747437523445114e+04,1.842103214118455071e+04,1.847989202506060246e+04,1.854028033156518359e+04,1.860354239118826808e+04
2.107181616511242464e+04,2.109439174343054765e+04,2.111148624048370402e+04,2.112626711384629016e+04,2.113547463296120986e+04,2.114070249689967022e+04,2.114195672958280193e+04,2.113926666850989568e+04,2.113268556002178229e+04,2.112068004405306419e+04,2.110657496326425462e+04,2.108888494867979898e+04,2.106614607106836047e+04,2.104176248947184649e+04,2.101269692317105364e+04,2.098240498308878159e+04,2.094788443432067288e+04,2.091101004621904576e+04,2.087205550940649118e+04,2.083294340658184956e+04,2.079071025938744424e+04,2.074729643608696642e+04,2.070301989452604903e+04,2.065820321536794654e+04,2.061317076994662057e+04,2.056824580708824215e+04,2.052540438555955188e+04,2.048164923821832053e+04,2.043893497477084748e+04,2.039755068339369609e+04,2.035776961537590250e+04,2.031984643427113770e+04,2.028569219544806401e+04,2.025216692848439561e+04,2.022112698686437216e+04,2.019441478567104787e+04,2.016878995168517577e+04,2.014771890109215747e+04,2.012957868045673240e+04,2.011271146267058793e+04,2.010049039047709084e+04,2.009118825207793270e+04,2.008473294452356640e+04,2.008101865685096709e+04,2.007990662602041266e+04,2.008122623320430284e+04,2.008477643351806910e+04,2.009032750869670417e+04,2.009762312871869653e+04,2.010638270499650389e+04,2.011630401453049853e+04,2.012875523145456100e+04,2.014002232467132853e+04,2.015144447900264640e+04,2.016266368036493077e+04,2.017500132551675779e+04,2.018472357892023865e+04,2.019315123186210985e+04,2.019992694586879225e+04,2.020470286763159675e+04,2.020714429821257363e+04,2.020693326969348709e+04,2.020377199264705996e+04,2.019738613885769155e+04,2.018752792514971225e+04,2.017229427121966728e+04,2.015486962498846697e+04,2.013341606682445854e+04,2.010613037564337719e+04,2.007631196885858662e+04,2.004054246477465495e+04,2.000051180960776401e+04,1.995626323871183558e+04,1.990788081888516899e+04,1.985548919481475605e+04,1.979925294317881344e+04,1.973937553888018010e+04,1.967609794185133069e+04,1.965811582125039422e+04,1.958884993246264639e+04,1.951548737977546989e+04,1.944163334070731071e+04,1.936443717251677299e+04,1.928757583550989511e+04,1.920821499984501861e+04,1.913008864218587405e+04,1.905036425694014179e+04,1.897115288923552725e+04,1.889460094523386215e+04,1.881783949411078356e+04,1.874468560514826095e+04,1.867222987423677114e+04,1.860429319282903452e+04,1.853961318414486595e+04,1.847859469091906794e+04,1.841990581842788379e+04,1.836732056855288101e+04,1.831945304309442872e+04,1.827831977438481408e+04,1.824072721270503826e+04,1.820861381304281531e+04,1.818389392892146134e+04,1.816323927478145924e+04,1.815021843907033326e+04,1.814315086721535772e+04,1.814205062428640667e+04,1.814689005352510139e+04,1.815760038534988416e+04,1.817580851471755886e+04,1.819789725413187989e+04,1.822714728874588036e+04,1.825987914803813328e+04,1.829929746783661540e+04,1.834338916898440220e+04,1.839184483723060112e+04,1.844433040503686061e+04,1.850049030776484869e+04,1.855995077689085156e+04,1.862232323381077731e+04
2.108532535224370076e+04,2.110863494519630331e+04,2.112974293405542267e+04,2.114534956915004295e+04,2.115700780731308623e+04,2.116468299253369332e+04,2.116836402610086952e+04,2.116806436533990200e+04,2.116382280702356366e+04,2.115570403712702682e+04,2.114379893119912595e+04,2.112822459248104133e+04,2.110751422672337503e+04,2.108505790745257400e+04,2.105782391085202107e+04,2.102925853853303124e+04,2.099636882597301155e+04,2.096102869593797368e+04,2.092514319815204362e+04,2.088576028066061554e+04,2.084481098800170003e+04,2.080261662287364015e+04,2.075950734525773441e+04,2.071581926682457561e+04,2.067189141797268530e+04,2.062971205250659841e+04,2.058632214262976777e+04,2.054369556438442669e+04,2.050215127575190854e+04,2.046199519842781592e+04,2.042518186812562635e+04,2.038865746427740669e+04,2.035433050610893406e+04,2.032242494578202604e+04,2.029481591480626957e+04,2.026832008253628737e+04,2.024642860157196992e+04,2.022756684264290379e+04,2.021012447520217393e+04,2.019749566399783362e+04,2.018799712010740768e+04,2.018158997123755398e+04,2.017819882640067954e+04,2.017771215986082098e+04,2.017998306726152077e+04,2.018483039081963943e+04,2.019204020651060273e+04,2.020136766225978499e+04,2.021253915233223233e+04,2.022693570489995182e+04,2.024087334612326231e+04,2.025568812929769047e+04,2.027101915192426532e+04,2.028816970320881228e+04,2.030340102097613271e+04,2.031799907628895016e+04,2.033324454721013899e+04,2.034540081422275398e+04,2.035575511582597392e+04,2.036393230161361862e+04,2.036957104693847941e+04,2.037232770747400355e+04,2.037188003725640010e+04,2.036793073161007487e+04,2.036021075788483722e+04,2.034848243885755073e+04,2.033254225595318712e+04,2.031055169175303308e+04,2.028572802976323874e+04,2.025463533194261254e+04,2.021890093001554487e+04,2.018020875822703238e+04,2.013523521727233310e+04,2.008574680569622433e+04,2.003187318716003210e+04,1.997208582094340818e+04,1.990999797136778943e+04,1.984416650900361128e+04,1.977488425023309537e+04,1.970075993719082908e+04,1.962559403829486109e+04,1.959644765174464555e+04,1.951527252407991909e+04,1.943420654724122141e+04,1.935046801517356653e+04,1.926615544328198303e+04,1.918340900855200016e+04,1.909944060916776652e+04,1.901639094827487133e+04,1.893643029737303732e+04,1.885672381686689914e+04,1.878109791373644839e+04,1.870666873272557859e+04,1.863725536657587509e+04,1.856990632818866288e+04,1.850842041892724228e+04,1.845147603926065494e+04,1.839941507917791023e+04,1.835254397464843350e+04,1.831113120701551088e+04,1.827713187103229575e+04,1.824728563753273920e+04,1.822518781104040681e+04,1.820748315757466480e+04,1.819768828882116941e+04,1.819408387840789510e+04,1.819663733219658025e+04,1.820527238936335198e+04,1.821987023917469196e+04,1.824200373514459352e+04,1.826801087850172189e+04,1.830111536979576340e+04,1.833931549203925533e+04,1.838231046174658695e+04,1.842977076012894395e+04,1.848134139496431453e+04,1.853664534262649249e+04,1.859528713128619711e+04,1.865685652517448762e+04
2.109453146307601128e+04,2.112036291557687218e+04,2.114406823880487354e+04,2.116232409025868401e+04,2.117827085986715974e+04,2.118863901271083159e+04,2.119500463006514474e+04,2.119736299810247147e+04,2.119573616110769217e+04,2.119017365986475488e+04,2.118075299912763876e+04,2.116597299008988193e+04,2.114918226539608440e+04,2.112893426151556196e+04,2.110380751996135223e+04,2.107723726731768693e+04,2.104623781224465347e+04,2.101268063454085495e+04,2.097847099706210429e+04,2.094066976496548159e+04,2.090121211289087660e+04,2.086042891646627686e+04,2.081866157262559864e+04,2.077789662610439700e+04,2.073521610529502505e+04,2.069260722038891981e+04,2.065042131725599756e+04,2.060900370284225210e+04,2.056869017206784338e+04,2.053146095406278619e+04,2.049431277620795299e+04,2.045918518678058172e+04,2.042800745588573045e+04,2.039769384448498022e+04,2.037011435030374560e+04,2.034712305342158652e+04,2.032719674069341272e+04,2.030877647065502242e+04,2.029528257469605887e+04,2.028508082805600134e+04,2.027817151010251837e+04,2.027451607556742965e+04,2.027236047338237404e+04,2.027661863894973067e+04,2.028210695271976874e+04,2.029031167633523000e+04,2.030100734496070072e+04,2.031393531285558129e+04,2.033047918651896180e+04,2.034697619588751695e+04,2.036475508872003411e+04,2.038512013357484830e+04,2.040434995425512898e+04,2.042537858311756281e+04,2.044446833554562181e+04,2.046286583792502643e+04,2.048181321460925392e+04,2.049757144227542449e+04,2.051138874885736732e+04,2.052452045132243074e+04,2.053326653608601191e+04,2.053891437580023194e+04,2.054111800379460328e+04,2.053955781555181602e+04,2.053394414558538119e+04,2.052236379572396982e+04,2.050791135831954307e+04,2.048874806758211344e+04,2.046307405186854885e+04,2.043411488382535754e+04,2.039849396746425191e+04,2.035786633763229474e+04,2.031227355809998699e+04,2.026180387532283203e+04,2.020659195473717409e+04,2.014681816273907316e+04,2.008270739928126568e+04,2.001283134428132325e+04,1.994088875897703110e+04,1.986382455944927642e+04,1.978543709939904511e+04,1.970271461556994473e+04,1.966798379119596211e+04,1.958301828411006136e+04,1.949522177649219520e+04,1.940670926596477511e+04,1.931800145586699364e+04,1.923127079137766850e+04,1.914376987844469841e+04,1.905766321622682153e+04,1.897513867629069136e+04,1.889338944992781035e+04,1.881456700215121964e+04,1.874083572611157433e+04,1.866928445942440885e+04,1.860371662617297261e+04,1.854283904385805363e+04,1.848701127331992029e+04,1.843655499224446248e+04,1.839175135660285014e+04,1.835283875995830749e+04,1.832001101132537588e+04,1.829514435056693037e+04,1.827661698200399405e+04,1.826275878806842957e+04,1.825702929738798412e+04,1.825766281557435286e+04,1.826457412134774495e+04,1.827935999182998785e+04,1.829839503271534340e+04,1.832491228427315946e+04,1.835521746809672914e+04,1.839245989474045928e+04,1.843459688407456269e+04,1.848127796640378074e+04,1.853212651607752196e+04,1.858674348992161686e+04,1.864471131009157398e+04,1.870559784739353927e+04
2.110158262331114383e+04,2.113171362703960040e+04,2.115659214920931845e+04,2.117931212794955354e+04,2.119655807688293862e+04,2.120985855548328254e+04,2.121916146051825490e+04,2.117598398977657780e+04,2.117724149922339711e+04,2.117452040994993877e+04,2.121632148520907504e+04,2.120583429371335660e+04,2.119163512403468485e+04,2.117226845873851562e+04,2.115113147304978338e+04,2.112682456519850530e+04,2.109797444394353079e+04,2.106644845084173721e+04,2.103415056058831397e+04,2.099815261088710395e+04,2.096039265024886117e+04,2.092120983375198557e+04,2.088258609866996994e+04,2.084162561192456633e+04,2.080032049608440138e+04,2.075903904335002881e+04,2.071814796283873147e+04,2.067965422097011469e+04,2.064062386169252568e+04,2.060303749980329303e+04,2.056721848938177573e+04,2.053512799771685968e+04,2.050373635300164460e+04,2.047661079628148582e+04,2.045065987214251072e+04,2.042939641536431736e+04,2.040965466606651898e+04,2.039488542085047811e+04,2.038350770967238350e+04,2.037556612677383237e+04,2.036939637870038860e+04,2.036829839562557754e+04,2.037052531308450853e+04,2.037762709581924719e+04,2.038610748690046603e+04,2.039743689276574878e+04,2.041137984259543009e+04,2.042933055801573209e+04,2.044765643138319138e+04,2.046768702348865918e+04,2.049072300947157783e+04,2.051305689016540418e+04,2.053760160723733134e+04,2.056062184875932871e+04,2.058499399028241169e+04,2.060697123093178379e+04,2.062941062939265976e+04,2.064857196507422486e+04,2.066566594196984079e+04,2.068191173488253844e+04,2.069360724666342139e+04,2.070200484632985899e+04,2.070673598066548584e+04,2.070745980096148560e+04,2.070386698191941832e+04,2.069568326187427738e+04,2.068267266617272981e+04,2.066299602110605338e+04,2.063979271805653116e+04,2.060966356203291798e+04,2.057584910316584865e+04,2.053503969255601987e+04,2.048892428742637276e+04,2.043759336231261841e+04,2.038118660351715516e+04,2.031821987382040243e+04,2.025227041868850938e+04,2.018194988874025876e+04,2.010589513071690453e+04,2.002784419491686276e+04,1.994481571734696627e+04,1.985893482509520254e+04,1.977066976469001384e+04,1.968224219008805812e+04,1.964082843214541208e+04,1.954849238788342336e+04,1.945586468181986129e+04,1.936350188198679825e+04,1.927196357015529065e+04,1.918345578075625235e+04,1.909524166098504793e+04,1.900949925714448909e+04,1.892841979257581988e+04,1.884917609006864950e+04,1.877558414455867023e+04,1.870473661991607514e+04,1.864041219498967985e+04,1.858130450977417058e+04,1.852774874641690985e+04,1.848003698207371053e+04,1.843841584891913226e+04,1.840308464498873218e+04,1.837591137423750479e+04,1.835356910885256366e+04,1.833954282243110356e+04,1.833211755090998486e+04,1.833124619124567835e+04,1.833683300747739850e+04,1.834873505812149961e+04,1.836676406423829030e+04,1.839240769715281203e+04,1.842195900045745657e+04,1.845854161582113011e+04,1.850009487557472312e+04,1.854624658031886793e+04,1.859659784644222236e+04,1.865072715015715221e+04,1.870819451821839903e+04,1.876854581737390254e+04
2.110703540639870334e+04,2.114001167772439658e+04,2.116785283367510419e+04,2.119362880789072369e+04,2.121399695471589803e+04,2.118199065865782904e+04,2.119444824712726404e+04,2.120288816739141475e+04,2.120729207990466966e+04,2.120767224260952207e+04,2.120407236344137345e+04,2.119656811839909642e+04,2.118526731960650068e+04,2.121875436676116078e+04,2.120026890289018047e+04,2.117849184856761713e+04,2.115204868728402653e+04,2.112441190051648300e+04,2.109264940201005084e+04,2.105867501498936326e+04,2.102443573045547237e+04,2.098704522470809752e+04,2.094847746043687221e+04,2.090910355053559761e+04,2.086930182468832936e+04,2.083108819398406195e+04,2.079158035425571143e+04,2.075278480418634717e+04,2.071507012479196419e+04,2.068043817785236752e+04,2.064594287336204434e+04,2.061354492099405616e+04,2.058519449677562807e+04,2.055785914175791549e+04,2.053508390437625349e+04,2.051376560166190029e+04,2.049738869158306625e+04,2.048442843495702255e+04,2.047497786551769241e+04,2.046742828774426016e+04,2.046510964073258219e+04,2.046632709753821837e+04,2.047100326903749374e+04,2.048067891697929008e+04,2.049186954531437368e+04,2.050603161967237247e+04,2.052457820638245903e+04,2.054391586636687862e+04,2.056538359354567365e+04,2.059028684849638375e+04,2.061494152169470908e+04,2.064224716435626033e+04,2.066848024928927771e+04,2.069649386522269924e+04,2.072418234788213158e+04,2.074944626552291447e+04,2.077509480595687637e+04,2.079738828044166439e+04,2.081750166557705961e+04,2.083661961858675932e+04,2.085103968231889303e+04,2.086198072908585891e+04,2.086905308014000184e+04,2.087189601250880514e+04,2.087018181310623186e+04,2.086361953926345450e+04,2.085195844488855801e+04,2.083499103468551766e+04,2.081092302590751206e+04,2.078290850511181634e+04,2.074761395428286050e+04,2.070666089160434785e+04,2.066009005107288249e+04,2.060799430986677180e+04,2.055051841406943277e+04,2.048785818928485969e+04,2.041859488238985068e+04,2.034634865449881181e+04,2.026812065491828253e+04,2.018764416805683868e+04,2.010197964261675952e+04,2.001326219813438365e+04,1.992198276326298947e+04,1.983037416694522835e+04,1.973555896881429362e+04,1.963980267103895312e+04,1.959379092260129983e+04,1.949789267591616954e+04,1.940279574201969081e+04,1.930908405397317256e+04,1.921733392284548609e+04,1.912976114646240603e+04,1.904361631407009554e+04,1.896106527507229475e+04,1.888427734596043592e+04,1.881037899787456263e+04,1.874314911830751225e+04,1.868130321211417322e+04,1.862518797685563914e+04,1.857510442348098150e+04,1.853130544676713180e+04,1.849399387919629226e+04,1.846332104625811917e+04,1.844110018272834714e+04,1.842566915107247769e+04,1.841531109630095307e+04,1.841339355851372238e+04,1.841809577932101092e+04,1.843097392341456725e+04,1.844839823151286691e+04,1.847183166513164178e+04,1.850269382992293686e+04,1.853894135023377021e+04,1.858021076122886734e+04,1.862610739476804156e+04,1.867620953845960321e+04,1.873007279340343666e+04,1.878723457981459796e+04,1.884721873843335197e+04
2.111146299728541635e+04,2.114742934510495979e+04,2.118000779378294828e+04,2.120741901853476884e+04,2.118264188491334789e+04,2.120244791033008369e+04,2.121831673843073077e+04,2.123189068621897604e+04,2.123969871036428958e+04,2.124344502219717833e+04,2.124315308930727770e+04,2.123888029249454848e+04,2.123071825862774858e+04,2.121707895636264584e+04,2.120155088087817421e+04,2.118261162852542475e+04,2.120890738246843102e+04,2.118379045604506973e+04,2.115441024534424650e+04,2.112428911860194057e+04,2.109054139833626687e+04,2.105512422095998772e+04,2.101840510587077006e+04,2.098238719117885921e+04,2.094421861068878206e+04,2.090591170610210975e+04,2.086786148812097963e+04,2.083209383346937830e+04,2.079572928022546694e+04,2.076076957240636693e+04,2.072921273707205546e+04,2.069811720239956048e+04,2.066943199215509230e+04,2.064509274016917334e+04,2.062205815474121482e+04,2.060384821229043882e+04,2.058899593444206403e+04,2.057764561985799810e+04,2.056824755063129123e+04,2.056416682050633244e+04,2.056376557701552520e+04,2.056701400202952209e+04,2.057548984754749108e+04,2.058576748805036186e+04,2.059933433193759993e+04,2.061598194906805293e+04,2.063711017638604972e+04,2.065913087486274890e+04,2.068501150437284377e+04,2.071110104969429085e+04,2.074029414767172420e+04,2.076888898661636631e+04,2.079972331133106491e+04,2.083069397659445531e+04,2.085969736259616911e+04,2.088951214036138845e+04,2.091638995074544800e+04,2.094309924624720588e+04,2.096590480406937422e+04,2.098758422214110033e+04,2.100443693057948258e+04,2.101765010898382752e+04,2.102843358927560621e+04,2.103317121897111065e+04,2.103313658137770835e+04,2.102802350431284867e+04,2.101594981181222829e+04,2.099993370924430201e+04,2.097818544448388275e+04,2.094896398394764401e+04,2.091381900900052278e+04,2.087436683810476097e+04,2.082739277912472608e+04,2.077461768933892017e+04,2.071455083359920536e+04,2.065067414570308756e+04,2.058160576432835660e+04,2.050599609951084130e+04,2.042750821874276153e+04,2.034322110666544177e+04,2.025523140834053629e+04,2.016401802853896515e+04,2.007009340505383443e+04,1.997570018733097822e+04,1.987801003120146925e+04,1.977930028180952650e+04,1.968016938627691707e+04,1.963130396285955794e+04,1.953315900050869095e+04,1.943641960586525965e+04,1.934168578280584188e+04,1.924954371556415572e+04,1.916056042209139559e+04,1.907693488264232292e+04,1.899587814815997262e+04,1.891951652463042410e+04,1.884997130487923278e+04,1.878597729475758388e+04,1.872789048072849982e+04,1.867601860159373609e+04,1.863061864048813004e+04,1.859189483299679705e+04,1.855999721028792555e+04,1.853672563875842025e+04,1.851871711373917060e+04,1.850936555227884674e+04,1.850689765051042195e+04,1.851119180076330667e+04,1.852207492642189027e+04,1.854103010665954207e+04,1.856438009410721133e+04,1.859521791752346326e+04,1.863148810350161511e+04,1.867111423367197858e+04,1.871706407298677368e+04,1.876719713674334344e+04,1.882104597236012341e+04,1.887979900306821219e+04,1.893960764046860277e+04
2.111544902394743985e+04,2.115453592422415386e+04,2.119039710543720867e+04,2.122122330002041417e+04,2.119992547100581578e+04,2.122503184466130915e+04,2.124453560906785424e+04,2.126004976677036029e+04,2.127150680947981891e+04,2.128058372855160269e+04,2.128386003189536859e+04,2.128308286689736997e+04,2.127832543141531642e+04,2.126798734820212121e+04,2.125563536731383647e+04,2.123973982873733621e+04,2.121880191218524124e+04,2.119649904728800175e+04,2.121984090355323860e+04,2.119217616085318150e+04,2.116073500264811446e+04,2.112908686189338914e+04,2.109438688495205133e+04,2.105862938275281340e+04,2.102221299218988861e+04,2.098716617978480645e+04,2.095065475589965354e+04,2.091470252864534268e+04,2.088133856248416123e+04,2.084769485092078685e+04,2.081576892897082143e+04,2.078755159928411013e+04,2.076009992356825387e+04,2.073698976403995766e+04,2.071521163563331356e+04,2.069828303860520828e+04,2.068475856260341243e+04,2.067479447063175030e+04,2.066685948996170191e+04,2.066431184380623745e+04,2.066552898777238443e+04,2.067048659734180546e+04,2.068075866014094208e+04,2.069293601083580870e+04,2.070849817220697878e+04,2.072887592619060888e+04,2.075053310983657138e+04,2.077645120465417858e+04,2.080302182725872262e+04,2.083314370084024267e+04,2.086314683564254665e+04,2.089586240179828019e+04,2.092919951642467640e+04,2.096106022186702467e+04,2.099420041176470113e+04,2.102649161697854288e+04,2.105581319729756797e+04,2.108489040602953173e+04,2.110999302861987962e+04,2.113385625759029062e+04,2.115278415409699664e+04,2.116793431744322879e+04,2.118048845245054690e+04,2.118683641926798737e+04,2.118822581659781281e+04,2.118433705037395703e+04,2.117489412562584039e+04,2.115806180278869579e+04,2.113687510757235577e+04,2.110799007583706407e+04,2.107455683043727186e+04,2.103333511546099908e+04,2.098597641311032930e+04,2.093257922014576616e+04,2.087166896191771957e+04,2.080671340694281389e+04,2.073635119496917468e+04,2.065925595182759571e+04,2.057908189127492369e+04,2.049294673878487083e+04,2.040295309408527100e+04,2.030959871064045001e+04,2.021341615670928149e+04,2.011496805017974111e+04,2.001484197516314453e+04,1.991364513211211306e+04,1.981199877630494302e+04,1.971053250203796779e+04,1.966003157351785921e+04,1.956082132264424581e+04,1.946367710335997981e+04,1.936920537069751299e+04,1.927963190861846670e+04,1.919224663802492432e+04,1.910920957158773672e+04,1.903267510423166095e+04,1.895978525937293307e+04,1.889427449843994691e+04,1.883484463640014292e+04,1.878180773477317416e+04,1.873542251273419242e+04,1.869589232171926415e+04,1.866336368842804222e+04,1.863962175373925129e+04,1.862131206756096799e+04,1.861180025021050824e+04,1.860930833589131362e+04,1.861369929592119297e+04,1.862647781971181394e+04,1.864401394018225255e+04,1.866771250879723812e+04,1.869893255027907435e+04,1.873560458053147886e+04,1.877731930222411756e+04,1.882195805885916343e+04,1.887241136319501675e+04,1.892817569044508855e+04,1.898540140403294936e+04,1.904524203166511143e+04
2.111958182251956896e+04,2.116190277171655907e+04,2.120118183738988591e+04,2.118709527557287947e+04,2.121793210756749613e+04,2.124681669494381640e+04,2.127015969394339481e+04,2.129125855677746586e+04,2.130659591110175825e+04,2.131782184702777886e+04,2.132661951599863824e+04,2.132958998747341684e+04,2.132849196666688658e+04,2.132171029661039938e+04,2.131278824995263130e+04,2.130018649119476322e+04,2.128410915240918985e+04,2.126308579331284272e+04,2.124080962132534478e+04,2.121415854614228010e+04,2.118689234304666752e+04,2.120606579989116290e+04,2.117515255328797502e+04,2.114142362465304905e+04,2.110688785304292105e+04,2.107196000259421999e+04,2.103867824353749165e+04,2.100422604264703114e+04,2.097063031370757381e+04,2.093992023862214410e+04,2.090923369295094744e+04,2.088219080045528244e+04,2.085588014677312458e+04,2.083387682432626025e+04,2.081320206112330197e+04,2.079737187230645213e+04,2.078496218223508913e+04,2.077614165543383569e+04,2.076939771321497392e+04,2.076808333208662225e+04,2.077059189224138390e+04,2.077854354393284302e+04,2.078859689281007741e+04,2.080227354699047282e+04,2.081940944803468301e+04,2.084142821762635140e+04,2.086480484247248387e+04,2.089250349105650093e+04,2.092092274497190374e+04,2.095294118549622362e+04,2.098651509128458565e+04,2.101958349817749695e+04,2.105491921913961414e+04,2.109040934691118309e+04,2.112554793557809899e+04,2.115821173710841686e+04,2.119109552825024002e+04,2.122046179179311730e+04,2.119888966694645933e+04,2.122455269786692224e+04,2.124508693159880931e+04,2.126173807345677051e+04,2.127577694854084984e+04,2.128337544451607391e+04,2.128587194832108798e+04,2.128293631361782900e+04,2.127428333355902578e+04,2.125796707324252930e+04,2.123722243615955813e+04,2.120849484752985882e+04,2.117513843075296609e+04,2.118378543140078546e+04,2.113603765005714376e+04,2.108205638040651684e+04,2.102038387561144191e+04,2.095447265146576683e+04,2.088298205537605099e+04,2.080460886211317847e+04,2.072135556199366692e+04,2.063530204807023983e+04,2.054363172340556048e+04,2.044850096669598133e+04,2.035046089983117417e+04,2.025009357403425383e+04,2.014800665788960760e+04,2.004482784716004971e+04,1.994119905407156330e+04,1.983777043640837655e+04,1.973519432877664804e+04,1.963411913973334595e+04,1.958527349265111843e+04,1.948910971894839895e+04,1.939631716012669494e+04,1.930747068479674635e+04,1.922475592209608294e+04,1.914540027767923311e+04,1.907149969541339669e+04,1.900513687474382459e+04,1.894502517924114363e+04,1.889147841198951937e+04,1.884475452157671680e+04,1.880505355634680018e+04,1.877419797411037143e+04,1.874891138424281962e+04,1.873257667607450276e+04,1.872178823382328846e+04,1.871982157465990167e+04,1.872652205199518357e+04,1.873830880692962091e+04,1.875660598691433552e+04,1.878278519621191663e+04,1.881312771987746237e+04,1.885059592021489516e+04,1.889307415931814467e+04,1.894009723027425935e+04,1.899117295293358620e+04,1.904578750130816479e+04,1.910341087548001087e+04,1.916350245286611607e+04
2.112606036978337215e+04,2.117009798926927033e+04,2.121290986624112702e+04,2.120249312884427491e+04,2.123888277272635605e+04,2.127000022634043125e+04,2.129908032566370093e+04,2.132424805311966338e+04,2.134367765674972907e+04,2.135898558114876505e+04,2.137012181800691178e+04,2.137877885122474981e+04,2.138158089272960206e+04,2.138030114829161903e+04,2.137505118816907634e+04,2.136428084743290674e+04,2.135158598855568562e+04,2.133549246458770358e+04,2.131455852634381154e+04,2.129249481121392455e+04,2.126621137257909868e+04,2.123948423456697492e+04,2.120926557993580354e+04,2.117938061222541728e+04,2.119691974770408706e+04,2.116383627752406755e+04,2.113223931957091554e+04,2.109933919620935922e+04,2.106716688873109524e+04,2.103775696949008852e+04,2.100827659106452484e+04,2.098234493212297093e+04,2.095708033026510384e+04,2.093605753426544834e+04,2.091632712302278378e+04,2.090140440710686380e+04,2.088988618423897424e+04,2.088195376025082078e+04,2.087774338747072034e+04,2.087734411206172081e+04,2.088079612666304456e+04,2.088808965108715347e+04,2.089916435802148771e+04,2.091390935468702810e+04,2.093379048105815309e+04,2.095534606372113922e+04,2.098156712744059041e+04,2.100890795996462111e+04,2.104026460076650255e+04,2.107201627431088127e+04,2.110697839212970575e+04,2.114308083546627313e+04,2.117984613801949308e+04,2.121517147282263613e+04,2.120162877007888164e+04,2.123735965477142599e+04,2.126996619932455360e+04,2.130233973629659158e+04,2.133223574082503910e+04,2.135743444211620954e+04,2.138084274127255776e+04,2.139857686520600691e+04,2.141188684204840683e+04,2.142035400242669857e+04,2.142529607673431747e+04,2.142127751113785780e+04,2.141310196523435297e+04,2.139882760325417621e+04,2.137826447860503686e+04,2.134957758742291480e+04,2.131438895409207908e+04,2.127439353644486982e+04,2.122621952423558105e+04,2.122012609594338574e+04,2.115935542204423109e+04,2.109259495912329294e+04,2.101851031915476779e+04,2.094067592405795585e+04,2.085623986484087072e+04,2.076726393462700071e+04,2.067588290201505879e+04,2.057934539583628066e+04,2.047985633040638641e+04,2.037801522865158040e+04,2.027444770077615976e+04,2.016811528440215625e+04,2.006303906697579077e+04,1.995821046467477572e+04,1.985429926802913542e+04,1.975197063774309936e+04,1.965187879760260694e+04,1.960480098493432160e+04,1.951108767114492366e+04,1.942145777419503429e+04,1.933809971073412453e+04,1.925826301846303977e+04,1.918569116562383715e+04,1.911751718271311256e+04,1.905740900461591082e+04,1.900403080902303918e+04,1.895763714014398283e+04,1.891842221993958810e+04,1.888819286608230323e+04,1.886367696899067960e+04,1.884822987359613762e+04,1.884012450960729620e+04,1.883924721353064524e+04,1.884542517641684390e+04,1.885842883527791128e+04,1.887964842074544868e+04,1.890540543141055969e+04,1.893866185826496803e+04,1.897732385911091114e+04,1.901927403299452271e+04,1.906734736799984239e+04,1.911936319208814530e+04,1.917643259709831909e+04,1.923470460824939073e+04,1.929526968452797155e+04
2.113224529148559668e+04,2.118128953633690253e+04,2.117765658042833093e+04,2.121947844976739725e+04,2.125983608399849618e+04,2.129675852138234768e+04,2.133002219723083545e+04,2.135773426239500986e+04,2.138314700737877865e+04,2.140273747936895234e+04,2.141812887455045711e+04,2.143098349288385361e+04,2.143790867460693698e+04,2.144065116144102649e+04,2.143930233955947915e+04,2.143399619742517825e+04,2.142490834951060242e+04,2.141055673292634310e+04,2.139459208174308878e+04,2.137560504486202262e+04,2.135221674167999299e+04,2.132818244521616725e+04,2.130047153421211988e+04,2.127118353859480703e+04,2.124244951632714947e+04,2.121127077505603665e+04,2.118151094456991996e+04,2.120029346338246251e+04,2.116957360314196558e+04,2.114146482184692286e+04,2.111316113572233007e+04,2.108828060016952804e+04,2.106396923936018720e+04,2.104380162420708803e+04,2.102647470461635385e+04,2.101064762770518428e+04,2.099979335083949263e+04,2.099248716921781306e+04,2.098887724728137255e+04,2.098906364596844651e+04,2.099309653929178603e+04,2.100097497797591495e+04,2.101264621809209348e+04,2.102962453511267086e+04,2.104851753067123354e+04,2.107073654590491788e+04,2.109764305320987478e+04,2.112731579719149158e+04,2.115780380333380890e+04,2.119193900575392763e+04,2.117762257613145630e+04,2.121284759216065868e+04,2.125046483362597064e+04,2.128825068181552342e+04,2.132568204508640338e+04,2.136052169210591819e+04,2.139563557145075174e+04,2.142877372337973793e+04,2.145770391596891568e+04,2.148529149015003350e+04,2.150763632586578024e+04,2.152763565701199695e+04,2.154144799373240676e+04,2.155033668607880827e+04,2.155391348327058950e+04,2.155183310560922837e+04,2.154379748971763183e+04,2.152955958088781335e+04,2.150723673834759393e+04,2.148007519208150916e+04,2.144461429751018295e+04,2.140252992241730681e+04,2.135386987523009884e+04,2.129874411733815214e+04,2.123732444417488296e+04,2.121828710230640718e+04,2.114497998511834885e+04,2.106462569780234480e+04,2.098085547768638935e+04,2.089088814819761319e+04,2.079684075111188577e+04,2.069925856751945685e+04,2.059872431606115424e+04,2.049585279091281700e+04,2.039128514196519973e+04,2.028568285635943175e+04,2.017972150419873651e+04,2.007239146196318325e+04,1.996775496172581916e+04,1.986480570257786894e+04,1.976421061033452861e+04,1.966661825214032433e+04,1.962444981025578454e+04,1.953474053631850984e+04,1.944982167321725865e+04,1.937021041020474513e+04,1.929801878788811155e+04,1.923203911484064884e+04,1.917099077237839811e+04,1.911847383227664977e+04,1.907474864321903442e+04,1.903669409076255397e+04,1.900608348766615381e+04,1.898463940831169020e+04,1.896903069787842105e+04,1.896251675690073171e+04,1.896329982058278983e+04,1.897118682449826156e+04,1.898759227296200697e+04,1.900888050992641365e+04,1.903802012540897704e+04,1.907128689610911533e+04,1.911155287999054417e+04,1.915667464833107078e+04,1.920613861316474504e+04,1.925940531511156587e+04,1.931591540141927544e+04,1.937672706306588952e+04,1.943799377943319269e+04
2.114032049332035240e+04,2.119281038993812399e+04,2.119283176893237396e+04,2.124026022082293639e+04,2.128468313949214644e+04,2.132581434014340630e+04,2.136169498088827822e+04,2.139550925357671804e+04,2.142536197635196731e+04,2.144941013790521538e+04,2.146924238387201331e+04,2.148648949800804257e+04,2.149773969930797466e+04,2.150471172478917288e+04,2.150747488366547623e+04,2.150614339098124765e+04,2.150087548592549865e+04,2.149187199611478718e+04,2.147937436147584231e+04,2.146196805769696948e+04,2.144335739892645506e+04,2.142049480860747281e+04,2.139715346860591671e+04,2.137032835506554693e+04,2.134384312664301251e+04,2.131471828676579753e+04,2.128680768646608340e+04,2.125713787997787585e+04,2.122957168932430795e+04,2.120112070168595528e+04,2.117563555840030313e+04,2.120021000693677342e+04,2.117837341055783327e+04,2.115733389949295088e+04,2.114063079055427806e+04,2.112694604513657396e+04,2.111491893016916583e+04,2.110797728290373925e+04,2.110466994983219774e+04,2.110510829322939389e+04,2.110935302786814282e+04,2.111741287200074294e+04,2.113085532953991788e+04,2.114636150678162812e+04,2.116539255412176135e+04,2.118935598729606136e+04,2.121478591638148646e+04,2.119449063803788158e+04,2.122677122692286503e+04,2.125938157953371410e+04,2.129532383406916051e+04,2.133242835753277177e+04,2.136850869307061657e+04,2.140646604955365183e+04,2.144406645856372779e+04,2.148076999419421190e+04,2.151433897658973001e+04,2.154761081152141560e+04,2.157834615047427360e+04,2.160432966444958583e+04,2.162841469413819141e+04,2.164674185062613105e+04,2.166052835198107641e+04,2.166934310118295252e+04,2.167447364475484937e+04,2.167053219436816289e+04,2.166225746970259934e+04,2.164772109676469699e+04,2.162672973261252628e+04,2.159746659876505146e+04,2.156153615902140155e+04,2.151892708820902044e+04,2.146969105403230060e+04,2.141394304267247207e+04,2.135186102548203780e+04,2.128368496534926817e+04,2.120800205492466921e+04,2.117866310581064317e+04,2.109254456516480423e+04,2.100184956604521722e+04,2.090709276989847422e+04,2.080883176941511920e+04,2.070766198815344251e+04,2.060421115518899751e+04,2.049913341150706401e+04,2.039310310933634173e+04,2.028680836947241914e+04,2.018094446480003535e+04,2.007620710065925959e+04,1.997158465212205192e+04,1.987114723400780349e+04,1.977557640078497934e+04,1.968207603433384793e+04,1.964306382322008722e+04,1.955892183907428989e+04,1.948187398600910092e+04,1.940915370261576027e+04,1.934442897397509660e+04,1.928643846825757646e+04,1.923548442255059490e+04,1.919180634628114058e+04,1.915557899969103164e+04,1.912856327973405132e+04,1.910750347168376902e+04,1.909567907573160483e+04,1.909134949524677359e+04,1.909436204382774304e+04,1.910450190518776071e+04,1.912149496592325158e+04,1.914666505028289976e+04,1.917797338911067345e+04,1.921334981010036427e+04,1.925561468143900856e+04,1.930261336670204764e+04,1.935380812376216636e+04,1.940863622216586373e+04,1.946651624132224242e+04,1.952847377545505879e+04,1.959066778998661903e+04
2.115084594111921615e+04,2.120679976857587462e+04,2.121050574718191638e+04,2.126188038381867227e+04,2.131044402125271154e+04,2.135587621494609630e+04,2.139788566384278238e+04,2.143621409699798096e+04,2.146894515159970615e+04,2.149929134560967213e+04,2.152541310504646390e+04,2.154552971632260596e+04,2.156128179222467588e+04,2.157435486519910046e+04,2.158142041362947202e+04,2.158425747164327186e+04,2.158300498681055615e+04,2.157784686333444552e+04,2.156732314782452886e+04,2.155507602437320747e+04,2.153972290056393831e+04,2.151991191368066939e+04,2.149939558452978963e+04,2.147687648906419054e+04,2.145107739447653876e+04,2.142581885868427344e+04,2.139815195956005482e+04,2.137021857931147679e+04,2.134417540925816866e+04,2.131705507351920824e+04,2.129270389399761916e+04,2.126811971132617327e+04,2.124711866346138413e+04,2.122835670501005370e+04,2.121045704355579801e+04,2.119714819591361447e+04,2.118697662330782623e+04,2.118016011439869180e+04,2.117687006865922012e+04,2.117722891757049365e+04,2.118130809661737294e+04,2.118912659399479162e+04,2.120065009544990608e+04,2.121579073801153572e+04,2.123612272496827063e+04,2.125802409173970227e+04,2.128467592771633645e+04,2.131236572546634125e+04,2.134417276706051780e+04,2.137800597637152532e+04,2.141174887653876795e+04,2.144834912705791066e+04,2.148562106596209924e+04,2.152136625894138706e+04,2.155844480825285427e+04,2.159462061954755336e+04,2.162934568705593119e+04,2.166039152263733558e+04,2.169057569951206096e+04,2.171600415635106037e+04,2.173951554558204953e+04,2.175726238066775841e+04,2.177045407468304620e+04,2.178033133166478365e+04,2.178315622419552528e+04,2.178025220600340981e+04,2.176964720526864403e+04,2.175443889553894405e+04,2.173276303504381212e+04,2.170281248005945235e+04,2.166618804142574663e+04,2.162456602680234937e+04,2.157463976286118850e+04,2.151651858607726172e+04,2.145376542661723215e+04,2.138494021387500106e+04,2.130864588136511156e+04,2.122865871271904325e+04,2.119208169070089934e+04,2.110091852753746207e+04,2.100576155641983496e+04,2.090717870448800386e+04,2.080577585272540455e+04,2.070219116919802036e+04,2.059708906522317557e+04,2.049115383742679842e+04,2.038508306268075830e+04,2.027958081623862381e+04,2.017535078596649691e+04,2.007139658895859611e+04,1.997177771619710256e+04,1.987718024560753838e+04,1.978482768975853105e+04,1.969702116172146634e+04,1.966448556624830235e+04,1.958908298086549621e+04,1.951817764908718527e+04,1.945541695762352902e+04,1.939953929560969118e+04,1.935083714013441931e+04,1.930953824677181547e+04,1.927744327973356121e+04,1.925137228756345576e+04,1.923462836155190598e+04,1.922553022252616938e+04,1.922232541577221127e+04,1.922976967779803090e+04,1.924269467994681327e+04,1.926244572068462730e+04,1.929030882432483486e+04,1.932423364465110353e+04,1.936213715265950304e+04,1.940678936178883305e+04,1.945602371475292603e+04,1.950927858102830942e+04,1.956596844714920735e+04,1.962710166392891551e+04,1.963874078546592500e+04,1.970204708058902179e+04
2.116436533882925869e+04,2.117531475158024114e+04,2.123287334811821347e+04,2.128821091159849311e+04,2.134094799000004423e+04,2.139072966313461075e+04,2.143723008028356708e+04,2.148015666385830264e+04,2.151756321910078987e+04,2.155262108037280268e+04,2.158346316005263361e+04,2.160828102977966773e+04,2.163036680640102713e+04,2.164632482214539777e+04,2.165785771603157627e+04,2.166503488619165728e+04,2.166797420586401131e+04,2.166684073724484188e+04,2.166184484772136784e+04,2.165323975060184603e+04,2.164131849973744829e+04,2.162641047428408638e+04,2.160719509071813081e+04,2.158742816234813654e+04,2.156415219240525039e+04,2.154117314651113702e+04,2.151555580827451195e+04,2.149113410960498732e+04,2.146497385786424275e+04,2.144091413398965960e+04,2.141599931938573718e+04,2.139405129459069576e+04,2.137207044992232113e+04,2.135384065531595843e+04,2.133800429696682841e+04,2.132487273153013666e+04,2.131301221400770009e+04,2.130606363221746869e+04,2.130250300257137860e+04,2.130246386649520718e+04,2.130602861965418560e+04,2.131322696514270501e+04,2.132574158007249935e+04,2.134008252361862105e+04,2.135782400814598077e+04,2.138048490549769485e+04,2.140442551405815175e+04,2.143276229222430266e+04,2.146176800777160679e+04,2.149446282384046935e+04,2.152873491612233920e+04,2.156245039421794354e+04,2.159850945912269526e+04,2.163471787400502944e+04,2.166887368717617937e+04,2.170380420415199478e+04,2.173728059339636820e+04,2.176708455669664545e+04,2.179602279461451690e+04,2.182021816496268730e+04,2.184249789936305024e+04,2.185903166421173955e+04,2.187102457664563553e+04,2.187971282119359239e+04,2.188137646893167403e+04,2.187733497117162915e+04,2.186562765322727500e+04,2.184934080820731469e+04,2.182662222519761417e+04,2.179567753710868419e+04,2.175810494721442228e+04,2.171390286778198788e+04,2.166313395825572661e+04,2.160592544011285645e+04,2.154246872661169618e+04,2.147132354632721399e+04,2.139619363385392353e+04,2.131405556260026060e+04,2.122875072655087570e+04,2.118743093951643095e+04,2.109216862437472446e+04,2.099360776339672157e+04,2.089236232173061580e+04,2.078907827187326620e+04,2.068442742573338910e+04,2.057910094700718764e+04,2.047214191399491392e+04,2.036757365175473387e+04,2.026445096353840199e+04,2.016347355658974266e+04,2.006532576251972932e+04,1.997066966735222377e+04,1.988184850356137031e+04,1.979604967156876228e+04,1.971553072942994186e+04,1.964253351789750741e+04,1.962586375777327339e+04,1.956415265001024818e+04,1.951107697671931237e+04,1.946530542338709347e+04,1.942867857956507942e+04,1.939809208471656893e+04,1.937687472791341133e+04,1.936177592177645420e+04,1.935599385760235600e+04,1.935776588861190248e+04,1.936689393109476077e+04,1.938474770943314070e+04,1.940774198789280490e+04,1.943875549150953884e+04,1.947572525223100092e+04,1.951655447410503984e+04,1.956396408804034581e+04,1.961577520072483458e+04,1.967140273663998232e+04,1.968176181545181316e+04,1.974315192448481685e+04,1.980649103432809352e+04,1.987114728218285018e+04
2.118301150200530537e+04,2.119571263629585155e+04,2.125696224807357066e+04,2.131625025448077940e+04,2.137486614813740016e+04,2.142901191836243379e+04,2.148003322534725885e+04,2.152760312471806537e+04,2.156974508550562314e+04,2.160958948860489181e+04,2.164524091058041085e+04,2.167654211922359536e+04,2.170171033839395386e+04,2.172236599051259691e+04,2.174018003183856490e+04,2.175184371793642640e+04,2.175912824291927973e+04,2.176217809478353593e+04,2.176118519093352370e+04,2.175638645165963680e+04,2.174806080404136446e+04,2.173652565391475218e+04,2.172045705545294913e+04,2.170358981772721745e+04,2.168465403669228544e+04,2.166239780447256635e+04,2.164062232887334540e+04,2.161641463681662572e+04,2.159359639693555073e+04,2.156924708386848215e+04,2.154718546937120846e+04,2.152615172285880544e+04,2.150486560632949113e+04,2.148709257786799571e+04,2.146980148418349563e+04,2.145670303472457454e+04,2.144638276491480065e+04,2.143907952548976755e+04,2.143498622133815661e+04,2.143424701613484649e+04,2.143695510636066319e+04,2.144315109164826572e+04,2.145282196159678278e+04,2.146590071222282131e+04,2.148396228097000858e+04,2.150344323990162229e+04,2.152750437161172158e+04,2.155249076092592441e+04,2.158145914668895421e+04,2.161067216899778577e+04,2.164309712340423721e+04,2.167660793409353937e+04,2.170906089709085063e+04,2.174331662762816995e+04,2.177718108190718340e+04,2.180845845652118442e+04,2.183995210218513967e+04,2.186778633810396423e+04,2.189476077138187247e+04,2.191702054290432716e+04,2.193738497541565448e+04,2.195204631378824706e+04,2.196220911942675593e+04,2.196745137388384319e+04,2.196739049412051099e+04,2.196168826770409942e+04,2.195005535860330565e+04,2.193225533091090620e+04,2.190644823616725625e+04,2.187583547934694798e+04,2.183703411672223592e+04,2.179170972763578175e+04,2.173993227980993106e+04,2.168183633473305963e+04,2.161593766812677495e+04,2.154586191115874681e+04,2.146855733282287838e+04,2.138779379964488908e+04,2.130061158540160977e+04,2.120919606369477697e+04,2.116423776815537713e+04,2.106601815673799138e+04,2.096529670103150420e+04,2.086272438122422318e+04,2.075897736633414752e+04,2.065475042738488992e+04,2.055075009680486983e+04,2.044768764756750898e+04,2.034627196846349398e+04,2.024720241393966717e+04,2.015116170810992480e+04,2.005880898281009286e+04,1.997077302891036379e+04,1.988935654066409916e+04,1.981169755896035349e+04,1.974172118761585443e+04,1.967816545857474557e+04,1.966986897507435060e+04,1.962026155304489657e+04,1.957969092509258189e+04,1.954512754274823237e+04,1.951830798241778393e+04,1.950091220478340983e+04,1.949130490576365264e+04,1.948940052202547668e+04,1.949504382626383449e+04,1.950801195941469632e+04,1.952963659353525145e+04,1.955633217051357497e+04,1.959092650170007255e+04,1.963134324289220967e+04,1.962700947506923694e+04,1.967751674037516932e+04,1.973220672998399823e+04,1.979047311029263074e+04,1.985168856029611197e+04,1.991521196258615237e+04,1.998209746349160559e+04,2.004829197964936611e+04
2.120407373425300466e+04,2.122004337811595178e+04,2.128662689132208470e+04,2.134980679568811320e+04,2.141085101363388821e+04,2.146933675676851999e+04,2.152656104809086537e+04,2.157877679019040079e+04,2.162735543474438600e+04,2.167033584738659556e+04,2.171084506701250211e+04,2.174701061258997652e+04,2.177869375393318478e+04,2.180414021400359343e+04,2.182665530151675921e+04,2.184292186394211603e+04,2.185467826030036667e+04,2.186204685526256799e+04,2.186519936621453962e+04,2.186435447771215695e+04,2.185977486570971087e+04,2.185176367059402401e+04,2.184066046477563214e+04,2.182683676665124949e+04,2.180902367405820405e+04,2.179097796288566315e+04,2.176979564173301333e+04,2.174926976736154757e+04,2.172817905870237155e+04,2.170530009229865391e+04,2.168442810447912780e+04,2.166263948867371073e+04,2.164370698287355481e+04,2.162633968909751275e+04,2.160921595724762301e+04,2.159602897151265643e+04,2.158538432733330410e+04,2.157752942601768882e+04,2.157097923119561165e+04,2.156926219488601782e+04,2.157079430681813392e+04,2.157731449824219453e+04,2.158544653843590640e+04,2.159682211636088323e+04,2.161133231412744499e+04,2.163049958563272958e+04,2.165074484643383767e+04,2.167516876007890096e+04,2.170010549692439963e+04,2.172855807719836594e+04,2.175678535113320686e+04,2.178770898486374062e+04,2.181752845790114952e+04,2.184910361348546576e+04,2.188025966420434997e+04,2.190882070637788274e+04,2.193758799445212935e+04,2.196271311723653344e+04,2.198699256584796240e+04,2.200659922673914116e+04,2.202434824563743314e+04,2.203645998368778965e+04,2.204414238734295941e+04,2.204698471355059883e+04,2.204461542543375981e+04,2.203670711352091166e+04,2.202132727948023239e+04,2.200155866209769738e+04,2.197557648078759667e+04,2.194161457983503351e+04,2.190127687236666679e+04,2.185457801406164072e+04,2.180159658709066571e+04,2.174247537545146770e+04,2.167742094499748782e+04,2.160502038921439089e+04,2.152896631866134703e+04,2.144627433133404702e+04,2.135907117666755221e+04,2.126785275716785691e+04,2.117488012096198509e+04,2.112737440909107681e+04,2.102753776790908887e+04,2.092608220784738660e+04,2.082205165558485896e+04,2.071940090604600846e+04,2.061720960332031245e+04,2.051618718694359995e+04,2.041703954253523261e+04,2.032046178580771084e+04,2.022881215564059676e+04,2.013938979020685656e+04,2.005448771218521870e+04,1.997638950693645165e+04,1.990224109130637953e+04,1.983593635250322404e+04,1.977620860494257067e+04,1.972171089914775803e+04,1.967792052548687207e+04,1.963991626877785893e+04,1.965974776108807418e+04,1.963889721952998661e+04,1.962589247640446411e+04,1.961908466503609088e+04,1.962158468001458095e+04,1.963321257414796855e+04,1.965049772580113495e+04,1.962627699391765054e+04,1.965701886215002742e+04,1.969561975972444634e+04,1.973986723248177441e+04,1.978923319988834555e+04,1.984314942141828942e+04,1.990101412504116888e+04,1.996219900423032232e+04,2.002775376408183365e+04,2.009362175461943843e+04,2.016083956316838157e+04,2.023042809965548804e+04
2.118117016415065154e+04,2.125046579337841831e+04,2.131884957969447714e+04,2.138753036208896083e+04,2.145262020632319036e+04,2.151536997893598164e+04,2.157703995109139942e+04,2.163385777817526832e+04,2.168715770682939910e+04,2.173662542304326780e+04,2.178199218850542093e+04,2.182136942731225281e+04,2.185792954977604677e+04,2.188988325520177023e+04,2.191550723364643636e+04,2.193811979723346303e+04,2.195444401342576020e+04,2.196623940261173993e+04,2.197531346665704041e+04,2.197855003423005110e+04,2.197785051702670171e+04,2.197184418943146011e+04,2.196417132087828941e+04,2.195353275324107381e+04,2.194031586087777396e+04,2.192493156996564358e+04,2.190614894672174705e+04,2.188773039232220617e+04,2.186679797103980673e+04,2.184713003787526395e+04,2.182750338275841204e+04,2.180668205529835541e+04,2.178841645237471676e+04,2.176975771180458833e+04,2.175441538803104777e+04,2.174104802036541514e+04,2.172995062202605186e+04,2.171970162717043422e+04,2.171386290156291216e+04,2.171092070653312840e+04,2.171098816688358784e+04,2.171412710852982127e+04,2.172034693609544775e+04,2.173128066573492833e+04,2.174347993756853975e+04,2.175847232148915646e+04,2.177773154266108759e+04,2.179766682119559846e+04,2.181965611521471874e+04,2.184503364014413091e+04,2.187008622350674705e+04,2.189773910076095490e+04,2.192588254756430979e+04,2.195239579882568796e+04,2.198011137340686400e+04,2.200521669709542766e+04,2.203051511010908871e+04,2.205219069041806506e+04,2.207139087922111503e+04,2.208927202780437074e+04,2.210205379149672808e+04,2.211092967088770820e+04,2.211547107408460579e+04,2.211528293808415765e+04,2.211000896635602112e+04,2.209933649649241124e+04,2.208300094111342332e+04,2.205914059099083534e+04,2.203089879298768938e+04,2.199487426611231058e+04,2.195267938344037975e+04,2.190433956681768177e+04,2.184994337160314899e+04,2.178964273013736238e+04,2.172197656973692938e+04,2.165057129852173966e+04,2.157240277530936874e+04,2.149123817359484383e+04,2.140414282610590453e+04,2.131330344053293811e+04,2.121926530207457836e+04,2.117439439414240769e+04,2.107576413211581530e+04,2.097579046871876926e+04,2.087514899985716329e+04,2.077453178137348732e+04,2.067464038756713853e+04,2.057617878939560615e+04,2.047984613063867437e+04,2.038632948265044251e+04,2.029629665976701654e+04,2.021038917794896406e+04,2.013090477922893479e+04,2.005504379949122085e+04,1.998671114155781106e+04,1.992469087780377595e+04,1.986769107784991502e+04,1.981948151081299875e+04,1.978036649399250746e+04,1.974713830518556642e+04,1.972166302621041541e+04,1.970575025984211243e+04,1.969768561217043316e+04,1.969740560776647180e+04,1.970477442690936732e+04,1.971958548958585015e+04,1.974328753689400037e+04,1.977209561582119204e+04,1.980905094912435743e+04,1.985197356198183843e+04,1.990035575216807774e+04,1.995364432105518063e+04,2.001124701793093118e+04,2.007423230346478522e+04,2.013856227730601677e+04,2.020526626592606772e+04,2.027534471659333212e+04,2.034476367222520639e+04,2.041453025924143731e+04
2.121162671576626599e+04,2.128567744146563928e+04,2.135742290008260170e+04,2.142975180091804941e+04,2.149875534286952461e+04,2.156564863868826069e+04,2.163165699986158870e+04,2.169298346225993009e+04,2.175092657838980085e+04,2.180514027380698826e+04,2.185532441133816610e+04,2.190122799724293873e+04,2.194265174020794802e+04,2.197944993403609260e+04,2.200987879586499184e+04,2.203721366850429331e+04,2.205816695053759031e+04,2.207611624328582548e+04,2.208788870746747125e+04,2.209531048525220831e+04,2.209860588593679131e+04,2.209804298598095193e+04,2.209392961297021247e+04,2.208660885385921574e+04,2.207645414776742109e+04,2.206221464006544556e+04,2.204760828650012263e+04,2.203141661627733265e+04,2.201242636144987773e+04,2.199438668770960066e+04,2.197608096909971209e+04,2.195628084953641519e+04,2.193871243074792437e+04,2.192044840471321368e+04,2.190517688702314626e+04,2.189156957104936009e+04,2.187992485402399325e+04,2.186883709314532462e+04,2.186185177783679683e+04,2.185747360263424343e+04,2.185582420532157994e+04,2.185697514761847560e+04,2.186094676349611836e+04,2.186770763839449501e+04,2.187883989034299157e+04,2.189088017031174968e+04,2.190530946462487918e+04,2.192189677949182806e+04,2.194202863010863075e+04,2.196206377706243074e+04,2.198496553495794069e+04,2.200702893415628932e+04,2.203114531971342512e+04,2.205356353394876351e+04,2.207712308080008370e+04,2.209804753668379271e+04,2.211750042862465489e+04,2.213664197872939985e+04,2.215169511767881340e+04,2.216383271640652674e+04,2.217424040479888208e+04,2.217919723135727691e+04,2.217993753909820225e+04,2.217608637223485857e+04,2.216566447859411710e+04,2.215166380077024223e+04,2.213219460008476744e+04,2.210541606976621551e+04,2.207447997348252102e+04,2.203600796643062495e+04,2.199162230269130669e+04,2.194136100085647195e+04,2.188532398554420797e+04,2.182200481390804634e+04,2.175496168647697777e+04,2.168281303681686404e+04,2.160421946876903530e+04,2.152125152862421237e+04,2.143606130980839953e+04,2.134575924156073597e+04,2.125258210499887355e+04,2.120725049614347517e+04,2.111012039981115959e+04,2.101196454421881936e+04,2.091345338902095682e+04,2.081527245836678776e+04,2.071811540531596984e+04,2.062432590098524815e+04,2.053130277369639953e+04,2.044136202509838040e+04,2.035515814158055582e+04,2.027499468569486635e+04,2.019812066991938627e+04,2.012844402729652938e+04,2.006310218265335425e+04,2.000592955007660203e+04,1.995563318203150993e+04,1.991254722220040276e+04,1.987864970805420307e+04,1.985072641051185201e+04,1.983232386953066452e+04,1.982007590593022178e+04,1.981739278046568506e+04,1.982418343709665351e+04,1.983685872945570736e+04,1.985689772830842412e+04,1.988570835460734088e+04,1.991950526802259265e+04,1.996127658800352947e+04,2.000882916770695010e+04,2.006162967176013626e+04,2.011910034477937734e+04,2.018231109733137419e+04,2.024724228926317301e+04,2.031491325264406623e+04,2.038630921912309714e+04,2.045739697346126195e+04,2.053081490405072691e+04,2.060256403215671889e+04
2.124917877180606592e+04,2.132606909079090110e+04,2.140098233080733917e+04,2.147677132646506652e+04,2.154950770997852669e+04,2.162037331223190995e+04,2.169056078026606701e+04,2.175624964170958265e+04,2.181870477891282644e+04,2.187921502714740927e+04,2.193411640756356064e+04,2.198479631705925567e+04,2.203102610539513989e+04,2.207098127545535681e+04,2.210784756513623870e+04,2.213990780423241085e+04,2.216551267714344431e+04,2.218800081710098311e+04,2.220418827879140736e+04,2.221587154210047447e+04,2.222489251101866830e+04,2.222822015879827086e+04,2.222778187496066676e+04,2.222226343636182719e+04,2.221530075428646524e+04,2.220563738936235313e+04,2.219367741443240084e+04,2.217984007868182380e+04,2.216291172145801829e+04,2.214660991130303591e+04,2.212972064544601017e+04,2.211101920100790448e+04,2.209420507052229368e+04,2.207801862254459411e+04,2.206117315529301413e+04,2.204730139959021471e+04,2.203505200269070338e+04,2.202468613472519792e+04,2.201477035701024579e+04,2.200878700064582517e+04,2.200521097911792458e+04,2.200412258271026076e+04,2.200555248220873182e+04,2.200948119089158718e+04,2.201583915270835860e+04,2.202616140049797832e+04,2.203697390529242693e+04,2.204971688826769241e+04,2.206413365568101290e+04,2.208157764814389520e+04,2.209841440197057091e+04,2.211592611939625931e+04,2.213536428161596996e+04,2.215301584358658874e+04,2.217008861006036750e+04,2.218777510507908300e+04,2.220232956984211341e+04,2.221493397022373392e+04,2.222677111848944332e+04,2.223411571255815215e+04,2.223817546368725016e+04,2.223854076596544473e+04,2.223482900461103418e+04,2.222668984830426052e+04,2.221217166867706692e+04,2.219428178829650278e+04,2.216951298538866104e+04,2.214097768112481572e+04,2.210526424822589615e+04,2.206395049450924853e+04,2.201702947495057015e+04,2.196455366072320612e+04,2.190663575694602332e+04,2.184344885642881854e+04,2.177522591822876711e+04,2.170058428553948761e+04,2.162153588702896377e+04,2.154017654919804772e+04,2.145358473469514865e+04,2.136394542095661745e+04,2.127180284889342147e+04,2.117945761239968124e+04,2.113417591660463950e+04,2.103815655350283487e+04,2.094213133572734660e+04,2.084677590261926525e+04,2.075277246921430924e+04,2.066080275842596893e+04,2.057154083445068682e+04,2.048730771227856167e+04,2.040542647467087954e+04,2.032983141409044038e+04,2.025775940211353009e+04,2.019309068847470917e+04,2.013463641225360334e+04,2.008282731823821086e+04,2.003803562308521941e+04,2.000057058883662103e+04,1.997067476566188270e+04,1.995022841989967856e+04,1.993763105178312981e+04,1.993291206699251779e+04,1.993602678746142192e+04,1.994685665093237185e+04,1.996521027141698869e+04,1.999252800886699697e+04,2.002677408464983455e+04,2.006586288687380147e+04,2.011272969181154622e+04,2.016516841565488721e+04,2.022430132900929311e+04,2.028616250763571588e+04,2.035179827596500400e+04,2.042054205564103904e+04,2.049336850980788586e+04,2.056625034143391531e+04,2.064179696577147115e+04,2.071600358194022556e+04,2.079147094252335955e+04
2.129251283880669507e+04,2.137030175550704007e+04,2.144984599351306679e+04,2.152885873886736226e+04,2.160509622932857019e+04,2.168139028270664858e+04,2.175386283092334634e+04,2.182538096806473914e+04,2.189215852797278785e+04,2.195546163204210461e+04,2.201493162216895144e+04,2.207025937765871640e+04,2.212118815289140912e+04,2.216751571046901518e+04,2.220909573082291172e+04,2.224583848918005242e+04,2.227771080062925466e+04,2.230310446266981307e+04,2.232536345886223717e+04,2.234135436353247496e+04,2.235288723904141807e+04,2.236018725853541400e+04,2.236352155147990561e+04,2.236319478683211491e+04,2.235954433757820516e+04,2.235293509360300959e+04,2.234375399315560935e+04,2.233240434551154613e+04,2.231766817293362692e+04,2.230322877740746480e+04,2.228787070611357922e+04,2.227036876211530762e+04,2.225439316902699647e+04,2.223868702167464653e+04,2.222196782987451297e+04,2.220784421787798055e+04,2.219497257344561513e+04,2.218361361502303043e+04,2.217234565325951553e+04,2.216463393735859427e+04,2.215896897105590324e+04,2.215543844024220016e+04,2.215408243937755469e+04,2.215489293485754752e+04,2.215781383975865901e+04,2.216274169598595472e+04,2.216952695324417436e+04,2.217961916026490508e+04,2.218949678266624687e+04,2.220052803074277472e+04,2.221240296854820917e+04,2.222641961513241404e+04,2.223893115554368705e+04,2.225118483720102813e+04,2.226277170681746793e+04,2.227490624626612407e+04,2.228388919548579725e+04,2.229092589143695659e+04,2.229559087950972025e+04,2.229746861492065364e+04,2.229615907091533882e+04,2.229128323620915762e+04,2.228248843991133617e+04,2.226781802794322721e+04,2.225025911521856324e+04,2.222793102668566280e+04,2.219899659298182814e+04,2.216493980913376436e+04,2.212730879745411221e+04,2.208276943778543500e+04,2.203297548667454976e+04,2.197799571736459620e+04,2.191629637598292902e+04,2.185138133719429607e+04,2.178183562508053728e+04,2.170628371220632107e+04,2.162842718864875496e+04,2.154531378964634496e+04,2.145907345067133429e+04,2.137020630626648199e+04,2.128096395149000455e+04,2.118850931097584544e+04,2.114525863297755131e+04,2.105164409083282226e+04,2.095840738151734695e+04,2.086621083243854810e+04,2.077735930558000109e+04,2.068925118174377712e+04,2.060417170552251628e+04,2.052441735628270544e+04,2.044730059689996415e+04,2.037672403106381535e+04,2.030991007847336004e+04,2.025070657631981885e+04,2.019790360698575387e+04,2.015190573435503757e+04,2.011305821403657319e+04,2.008333630282172817e+04,2.005957341046573129e+04,2.004530043972044950e+04,2.003889760648785159e+04,2.004036510201464989e+04,2.004962894127157051e+04,2.006654130536716548e+04,2.009257616579890600e+04,2.012574528006810579e+04,2.016400778482190799e+04,2.021031517247325974e+04,2.026249825382023118e+04,2.032002256554417545e+04,2.038397488502354827e+04,2.045038939583103638e+04,2.052027971740395878e+04,2.059461470188753447e+04,2.066937880472731194e+04,2.074715644441230688e+04,2.082557591243679053e+04,2.090230157836002763e+04,2.097989475050856709e+04
2.134200720456926501e+04,2.142211975017355871e+04,2.150430333346305997e+04,2.158625393652834464e+04,2.166570843925490044e+04,2.174546918453861144e+04,2.182163956836232683e+04,2.189705684847981320e+04,2.196791390572665841e+04,2.203710349185398081e+04,2.210092872907122364e+04,2.216071132383836084e+04,2.221616816853146884e+04,2.226707066625708831e+04,2.231324621831646073e+04,2.235457897181270528e+04,2.239100982956890948e+04,2.242091072443418670e+04,2.244758843482917291e+04,2.246789587397189462e+04,2.248523530894707073e+04,2.249656398325567716e+04,2.250374697926716181e+04,2.250706628819619073e+04,2.250683732555576717e+04,2.250340382241850602e+04,2.249713244186126394e+04,2.248840719335406902e+04,2.247762371893634554e+04,2.246356255918173702e+04,2.244986825614486588e+04,2.243531499633766362e+04,2.241866294134818600e+04,2.240353157518684748e+04,2.238864232884941157e+04,2.237431662798512843e+04,2.235921802443344495e+04,2.234686004418396624e+04,2.233583394843665883e+04,2.232631956369723775e+04,2.231682257621738245e+04,2.231070042981291772e+04,2.230636904366285307e+04,2.230383103898522677e+04,2.230304345697214012e+04,2.230391842176864156e+04,2.230632437789454707e+04,2.231008788455391186e+04,2.231499594350470579e+04,2.232079883171842084e+04,2.232884594879555516e+04,2.233555986858878168e+04,2.234223425218596822e+04,2.234850959339525434e+04,2.235401005552281276e+04,2.235834847356038517e+04,2.236113154133531498e+04,2.236196512650203658e+04,2.236045965487754438e+04,2.235623550476130913e+04,2.234892835153971100e+04,2.233819440305136959e+04,2.232208329818808124e+04,2.230357297683623619e+04,2.228077748074554256e+04,2.225184906001747004e+04,2.221824908131270786e+04,2.218149808450907585e+04,2.213823973342817044e+04,2.209009135969995987e+04,2.203708493783089216e+04,2.197930736511028954e+04,2.191524054141252418e+04,2.184840128454865771e+04,2.177738481284034788e+04,2.170082362908497453e+04,2.162074008833258995e+04,2.153923507960326970e+04,2.145338755506201414e+04,2.136537795151502360e+04,2.127745201942318818e+04,2.118676540764208767e+04,2.114572478163460619e+04,2.105475388804488466e+04,2.096457566585924360e+04,2.087746587728167651e+04,2.079082182052065036e+04,2.070691005871270318e+04,2.062801405021632672e+04,2.055146131954435259e+04,2.048114502812793944e+04,2.041431369498564163e+04,2.035481630096750450e+04,2.030147176361872698e+04,2.025471058751817327e+04,2.021490821930413949e+04,2.018406577616519644e+04,2.015906986708540353e+04,2.014347487729464774e+04,2.013571084022734431e+04,2.013582096582342638e+04,2.014377487535812543e+04,2.015946821989672026e+04,2.018440873102252954e+04,2.021497787154495018e+04,2.025422255322808633e+04,2.030007222785733757e+04,2.035207888468846795e+04,2.040973619287164183e+04,2.047248496412907843e+04,2.054137749812394031e+04,2.061244939665816491e+04,2.068832919351605233e+04,2.076501943816695712e+04,2.084508366048507742e+04,2.092614794770718436e+04,2.100586758359186933e+04,2.108676715929392958e+04,2.116491246840328677e+04
2.139801241792525980e+04,2.148181968490712461e+04,2.156461533102745307e+04,2.164916764094098471e+04,2.173317841472657165e+04,2.181439489317176049e+04,2.189560105741373263e+04,2.197458991734599113e+04,2.204921851182449609e+04,2.212069268807178014e+04,2.219024855311086867e+04,2.225423620147656766e+04,2.231399481932300841e+04,2.236927137815629249e+04,2.241986857164968387e+04,2.246564561025614967e+04,2.250651827696646797e+04,2.254245825799033628e+04,2.257187718800432049e+04,2.259808810580737190e+04,2.261798925898459856e+04,2.263498319393667043e+04,2.264606557623794652e+04,2.265310445457670721e+04,2.265639082498461357e+04,2.265624446732772049e+04,2.265300868034330779e+04,2.264704482560939505e+04,2.263872675368742784e+04,2.262843518544815015e+04,2.261494149964803364e+04,2.260184565415608813e+04,2.258790439264266752e+04,2.257185669517065980e+04,2.255726686716626864e+04,2.254282943144792807e+04,2.252882650578647736e+04,2.251389104714934365e+04,2.250147454204809037e+04,2.249013662097309134e+04,2.248001571123293252e+04,2.246958759202717920e+04,2.246215050016061286e+04,2.245609454799228115e+04,2.245138923525350401e+04,2.244796206887328299e+04,2.244569976503922953e+04,2.244444997907590005e+04,2.244402353956410661e+04,2.244419715812819777e+04,2.244471658168730210e+04,2.244530014972726349e+04,2.244564271531955455e+04,2.244541988520554150e+04,2.244429253129003337e+04,2.244191152335610241e+04,2.243792263072982314e+04,2.243197153898948454e+04,2.242208383177948417e+04,2.241117124200894614e+04,2.239728395448246738e+04,2.238011787013077992e+04,2.235776608841514098e+04,2.233323556131040095e+04,2.230305003243981628e+04,2.226865912609736552e+04,2.223156594399301684e+04,2.218840237047220580e+04,2.214075845653886790e+04,2.208863801703837817e+04,2.203209578850877006e+04,2.196958132404560456e+04,2.190456593328330200e+04,2.183560714046264184e+04,2.176129737735126400e+04,2.168529209454881493e+04,2.160460294511521352e+04,2.152131122852695989e+04,2.143756973439303692e+04,2.135047997840822791e+04,2.126226054241915699e+04,2.117518777392565971e+04,2.113650377246813150e+04,2.104837686843748088e+04,2.096148496098216856e+04,2.087808404128914117e+04,2.079554983587405877e+04,2.071612506145643420e+04,2.064206906101159984e+04,2.057068084390211152e+04,2.050582832499669166e+04,2.044639390836784150e+04,2.039287179213674972e+04,2.034571149933763081e+04,2.030531221765946248e+04,2.027201760327257216e+04,2.024779375157321920e+04,2.023118258211686043e+04,2.022065717172992299e+04,2.021966199490521103e+04,2.022820803798659472e+04,2.024287253654803499e+04,2.026520047233352670e+04,2.029666205820313189e+04,2.033529727741467650e+04,2.038075925060469308e+04,2.043263523351014010e+04,2.049045067618248868e+04,2.055367408792080823e+04,2.062172266037311056e+04,2.069561541222193046e+04,2.077139102806602023e+04,2.085163774128447403e+04,2.093399037827196298e+04,2.101609810152105638e+04,2.110046678644453641e+04,2.118473381837760098e+04,2.121641842383384937e+04,2.129838164170310483e+04
2.146085054196510464e+04,2.154628734032384818e+04,2.163269895390330930e+04,2.171778225195681443e+04,2.180427941910387017e+04,2.188990565997586236e+04,2.197242621954416973e+04,2.205461670068552485e+04,2.213429818464408163e+04,2.220935937231327989e+04,2.228265751569246640e+04,2.235053784121229546e+04,2.241431016804312821e+04,2.247532116532503278e+04,2.253010432825080352e+04,2.258012011445694952e+04,2.262526042143156519e+04,2.266386538498950540e+04,2.269915489157286356e+04,2.272957092078242567e+04,2.275361656700863387e+04,2.277464510481111938e+04,2.278964806051430060e+04,2.280045548718576902e+04,2.280733167182962643e+04,2.281056978381489171e+04,2.281048676217012689e+04,2.280741802738147089e+04,2.280171208984716213e+04,2.279372512649526470e+04,2.278381559552942053e+04,2.277073823952462408e+04,2.275804273804943659e+04,2.274446190978222876e+04,2.273031252122262958e+04,2.271428582397318678e+04,2.269985944821880548e+04,2.268566877122945152e+04,2.267031419955109595e+04,2.265718509770988021e+04,2.264480965137653402e+04,2.263328649458347354e+04,2.262106419557702611e+04,2.261138577764198999e+04,2.260262038298550760e+04,2.259471036558868946e+04,2.258756065353119629e+04,2.258104041635210160e+04,2.257498520107462537e+04,2.256758523210647400e+04,2.256184591205188190e+04,2.255590430186025333e+04,2.254949113730029785e+04,2.254232011704056640e+04,2.253409212620978360e+04,2.252449965813115705e+04,2.251161405566334724e+04,2.249836045333012589e+04,2.248281582524720579e+04,2.246306463880179217e+04,2.244207061099755811e+04,2.241632668560746242e+04,2.238884796317105065e+04,2.235617240503249923e+04,2.231974934602968278e+04,2.228107541076577036e+04,2.223678138575877529e+04,2.218844043941429118e+04,2.213603805176052265e+04,2.207960600319385412e+04,2.201757044451640104e+04,2.195336399281772901e+04,2.188551362128203618e+04,2.181257817712769611e+04,2.173816629261276103e+04,2.165925561011259560e+04,2.157956929615404806e+04,2.149615123825235059e+04,2.141113016278049327e+04,2.132669885213027010e+04,2.123997091045713751e+04,2.120331579440776841e+04,2.111708270368495141e+04,2.103357153594255215e+04,2.095015039632929256e+04,2.086903291024081409e+04,2.079245988465240225e+04,2.071775775072516990e+04,2.064878740634515998e+04,2.058447100221549044e+04,2.052534262134952587e+04,2.047024250549887074e+04,2.042461362778989132e+04,2.038389039895075257e+04,2.035009864060860127e+04,2.032522056877831346e+04,2.030616653998728725e+04,2.029646695428816020e+04,2.029456879147383734e+04,2.030052191509233671e+04,2.031430459314319887e+04,2.033749627981049707e+04,2.036658498284994857e+04,2.040467497051588725e+04,2.044978518136020284e+04,2.050154040134209208e+04,2.055950088437090744e+04,2.062481558849889552e+04,2.069362862565604155e+04,2.076698677935075830e+04,2.084587717375659849e+04,2.092796987318174797e+04,2.101093538194237044e+04,2.109728494380036136e+04,2.118464782780443784e+04,2.122050973289486137e+04,2.130770067321430543e+04,2.139368970021815039e+04,2.147777394703295431e+04
2.153250608317003935e+04,2.161747243677327060e+04,2.170538879978324985e+04,2.179392650517236325e+04,2.188245765846045106e+04,2.196871308882624726e+04,2.205542580397517304e+04,2.214036926542717265e+04,2.222137716099285171e+04,2.230124858126253821e+04,2.237789121009214432e+04,2.244928766425867798e+04,2.251672199576380081e+04,2.258151527192498907e+04,2.264019427607077523e+04,2.269419149077546899e+04,2.274337662602262571e+04,2.278767368464864558e+04,2.277700030963841709e+04,2.280983786142928875e+04,2.283958363785149413e+04,2.286295899114615167e+04,2.288352486965488060e+04,2.289808931837324053e+04,2.290858332572033396e+04,2.291527038930470007e+04,2.291843760187452426e+04,2.291839058027247665e+04,2.291544831011301721e+04,2.290993797547189752e+04,2.290218984088380239e+04,2.289253225015979842e+04,2.288128680303343572e+04,2.286706745944343857e+04,2.285356246789116994e+04,2.283934960232148296e+04,2.282468067995968158e+04,2.280808190231493791e+04,2.279314919821600779e+04,2.277834714757479378e+04,2.281224114009254845e+04,2.279803102425142424e+04,2.278424351689266041e+04,2.276930451100334176e+04,2.275640721798231243e+04,2.274390640734482440e+04,2.273172481202578638e+04,2.271814922420328367e+04,2.270624920534287230e+04,2.269425325480592437e+04,2.268196996628609486e+04,2.266757900188933127e+04,2.265406490440719062e+04,2.263957384036618168e+04,2.262223853810073342e+04,2.260501988379305112e+04,2.258604072163053206e+04,2.256342416126441094e+04,2.254014320986476378e+04,2.251271897425191128e+04,2.248415715715847909e+04,2.245100625377258984e+04,2.241469509958094568e+04,2.237669075888782390e+04,2.233360816046543187e+04,2.228697400473317248e+04,2.223672695958282566e+04,2.218284479097533040e+04,2.212534653744046227e+04,2.206264483518328052e+04,2.199814233928296017e+04,2.193034388821129687e+04,2.185778265646696673e+04,2.178402618544973666e+04,2.170602462902892148e+04,2.162745542020126595e+04,2.154533122244491824e+04,2.146173671299626585e+04,2.137882069888556725e+04,2.129366443808696931e+04,2.120846877112385118e+04,2.117554723965024459e+04,2.109193321217937046e+04,2.100992958134695073e+04,2.093173729903739877e+04,2.085468973230716074e+04,2.078261646608245792e+04,2.071281598638687865e+04,2.064911656001221854e+04,2.059040827907639323e+04,2.053719123989547370e+04,2.048993133699605823e+04,2.044905435300382669e+04,2.041494033856288297e+04,2.038958826949563809e+04,2.036993809513238375e+04,2.035954264444950968e+04,2.035688338847970590e+04,2.036204492383278557e+04,2.037671155024998006e+04,2.039749194632787840e+04,2.042759196629212238e+04,2.046348618467588676e+04,2.050823161268944386e+04,2.055982696716691134e+04,2.061786950068056467e+04,2.068353937175672036e+04,2.075301818733720575e+04,2.082901060298175435e+04,2.090762148176282062e+04,2.099144351606254349e+04,2.107814289676895714e+04,2.116538661242375383e+04,2.120552068369957851e+04,2.129646056954938103e+04,2.138729841994584422e+04,2.147728948347095866e+04,2.156401951875627856e+04,2.165016878722858382e+04
2.160985641198215308e+04,2.169727860387781402e+04,2.178622199622332118e+04,2.187604489633135381e+04,2.196445694606925827e+04,2.205416139016588568e+04,2.214289629460993456e+04,2.223009217691357480e+04,2.231358101574241300e+04,2.239613570716028335e+04,2.247566022780886851e+04,2.255013119109251420e+04,2.262081096443985007e+04,2.268899859681280213e+04,2.275121688883230672e+04,2.280887314435633016e+04,2.281168148496240610e+04,2.285981987713425769e+04,2.290311288792322739e+04,2.294156390788394492e+04,2.297522326322362642e+04,2.300250068059118348e+04,2.302690527883471805e+04,2.304523820422546123e+04,2.305938841548658093e+04,2.306958811780952965e+04,2.307777527866212768e+04,2.308085823486608570e+04,2.308080608594106161e+04,2.307791417457713396e+04,2.307079918530557188e+04,2.306312426802821574e+04,2.305349913818450295e+04,2.304220644290838391e+04,2.302951508794928668e+04,2.301399124388053315e+04,2.299923759183508810e+04,2.298377511223749025e+04,2.296609612264457974e+04,2.294973338896475616e+04,2.293312055129610235e+04,2.291465834730811184e+04,2.289779514234783710e+04,2.288086779490171466e+04,2.286217988501951913e+04,2.284509370903461240e+04,2.282785197191181942e+04,2.280866761728245183e+04,2.279082702582248021e+04,2.282094473978134920e+04,2.280191828885892755e+04,2.278206258687761147e+04,2.275958661733171903e+04,2.273748920397079200e+04,2.271235484180806088e+04,2.268717756048985757e+04,2.265853009013136034e+04,2.262941590507357614e+04,2.259641225020049023e+04,2.256093253279983765e+04,2.252441642195123131e+04,2.248347184250719147e+04,2.243957464078860357e+04,2.239261221330275293e+04,2.234250041489212890e+04,2.228918640621833038e+04,2.223265120569529245e+04,2.217126907669939101e+04,2.210837808368360857e+04,2.204243271415759227e+04,2.197191047699245973e+04,2.190030014700119500e+04,2.182616376964212395e+04,2.174808910516824108e+04,2.166803416862478480e+04,2.158802459564080345e+04,2.150506676917953882e+04,2.142124877955057309e+04,2.133871871456390363e+04,2.125453926495215273e+04,2.122107072902735672e+04,2.114014576751494315e+04,2.105920884649283835e+04,2.098202889496798161e+04,2.090591798787997686e+04,2.083467294934240635e+04,2.076557825091984705e+04,2.070243785342673073e+04,2.064413314076699317e+04,2.059115674406860489e+04,2.054397215834475355e+04,2.050300790480765863e+04,2.046865189351647859e+04,2.044291226880674367e+04,2.042441869963891804e+04,2.041174466741314973e+04,2.040839577719732188e+04,2.041282197302079294e+04,2.042673681633127853e+04,2.044679267350159353e+04,2.047622520137479296e+04,2.051155604978071642e+04,2.055587362783800927e+04,2.060722003496793332e+04,2.066523085115113645e+04,2.073111875321046682e+04,2.080110757276203367e+04,2.087792484081731527e+04,2.095771025497702067e+04,2.104307135646298411e+04,2.113169568833376979e+04,2.122126540857049986e+04,2.126410591291417950e+04,2.135816852425920661e+04,2.145252533929579658e+04,2.154641865884300205e+04,2.163910153609878034e+04,2.172984681973478291e+04,2.181628805268916767e+04
