1.762443778275238583e+04,1.764344076408620458e+04,1.771302040702995146e+04,1.768554562556906603e+04,1.770524029617803171e+04,1.772788900672612363e+04,1.774719956919085234e+04,1.776606478250777582e+04,1.778737705059355358e+04,1.780486503335661837e+04,1.782447289485050715e+04,1.783995990847071516e+04,1.785422602033926523e+04,1.786713508443604223e+04,1.788159913074749056e+04,1.789142222731816582e+04,1.789953405338802258e+04,1.790583757615840295e+04,1.791024751674910658e+04,1.791269102439595736e+04,1.791310828262032010e+04,1.791145304152634344e+04,1.790769307082076557e+04,1.790181052865652600e+04,1.789380224197288044e+04,1.788367989463495906e+04,1.786843216989244684e+04,1.785417897101445124e+04,1.783793668321790756e+04,1.781673064565929235e+04,1.779674107260844903e+04,1.777501844818936661e+04,1.774862481519635185e+04,1.772379138332582079e+04,1.769454306439065840e+04,1.771426227992473287e+04,1.763564411421332625e+04,1.765340524552454008e+04,1.762035673588362988e+04,1.758974967490090057e+04,1.755585993183852406e+04,1.752480738309738808e+04,1.749086624022288015e+04,1.745719957910673111e+04,1.742699922559605329e+04,1.739451151375382324e+04,1.736291678498237161e+04,1.733542195982506382e+04,1.730623224485598621e+04,1.728154619596703560e+04,1.725554445986522478e+04,1.723442907166256919e+04,1.721234949913655873e+04,1.719550973177407286e+04,1.718104880430758931e+04,1.716608984947486897e+04,1.715682263830260490e+04,1.715034544669085881e+04,1.714677172536074067e+04,1.714620216059498489e+04,1.714872427349927602e+04,1.715441210912569659e+04,1.716332601499924203e+04,1.717853951465737191e+04,1.719403396272531245e+04,1.721285301711037755e+04,1.723802210687680054e+04,1.726349650223125354e+04,1.729528428083183826e+04,1.733033213421283290e+04,1.736560215744568268e+04,1.740703083993060864e+04,1.745154618362933979e+04,1.749906751502535190e+04,1.754950350355339469e+04,1.760275273799255956e+04,1.765870432412051014e+04,1.771723849747449276e+04,1.773107014391338453e+04,1.779433510475387448e+04,1.785977085505350260e+04,1.793026024981614319e+04,1.799958136674505658e+04,1.807361768871214008e+04,1.814618790691660251e+04,1.822013474223995581e+04,1.829826595715776784e+04,1.837740529214168782e+04,1.845443396341096377e+04,1.853507615643570898e+04,1.861326965237251716e+04,1.869469334876240464e+04,1.877622584843213554e+04,1.885480123010886018e+04,1.893602096894409624e+04,1.901393899017004878e+04,1.909411762295523658e+04,1.917065334676907514e+04,1.919894303558397223e+04,1.927626513990541571e+04,1.934933381566597382e+04,1.942385046869298094e+04,1.949379705302853836e+04,1.956193706200717133e+04,1.963100707433334901e+04,1.969505490604965598e+04,1.975683134101424366e+04,1.981619194258961943e+04,1.987585917177313240e+04,1.992997322844207520e+04,1.998127604152102140e+04,2.002965043757317471e+04,2.007498740250308765e+04,2.011436068277436425e+04,2.015333928380790167e+04,2.018900821199099300e+04,2.021848322204608121e+04,2.024734018088644370e+04,2.026990095216420013e+04
1.771276954817454680e+04,1.774249871598274331e+04,1.776951865514388192e+04,1.779975986537741846e+04,1.782996552028550650e+04,1.785690820170944789e+04,1.788648051457235124e+04,1.791241696258349111e+04,1.794060067603326752e+04,1.796478733221511357e+04,1.799085410665985546e+04,1.801258335510731558e+04,1.803584933154919418e+04,1.805446695562906098e+04,1.807431002696647192e+04,1.808923212719144067e+04,1.810211279104824644e+04,1.811283988979787682e+04,1.812431313503571437e+04,1.813045060416377964e+04,1.813417887507326668e+04,1.813544221403522533e+04,1.813420051117031835e+04,1.813042971012709313e+04,1.812412213895082823e+04,1.811228941677600960e+04,1.810095373451098567e+04,1.808715871955148759e+04,1.806795732524103369e+04,1.804944030915282201e+04,1.802869044786534505e+04,1.800280353138645296e+04,1.797792896115529584e+04,1.794816969242406776e+04,1.791668851381490822e+04,1.788669006744513172e+04,1.785227991309078061e+04,1.781667440471271402e+04,1.778312599127038266e+04,1.774573764408458374e+04,1.770776715624230565e+04,1.771962981535834842e+04,1.763403732785172178e+04,1.764578611774925957e+04,1.760775164635526016e+04,1.757025959816767136e+04,1.753650923362842877e+04,1.750079462147445884e+04,1.746629900506962440e+04,1.743622708223253721e+04,1.740482704453225597e+04,1.737827317759493599e+04,1.735078510315870517e+04,1.732853346021857578e+04,1.730570229057467077e+04,1.728845768304404919e+04,1.727395082163313054e+04,1.725931467368701124e+04,1.725069309738551965e+04,1.724518960184123716e+04,1.724290295039149350e+04,1.724391720653884113e+04,1.724830151877400931e+04,1.725611000503529795e+04,1.726738173401655513e+04,1.728515238870447502e+04,1.730341125439241296e+04,1.732816421894624364e+04,1.735339181555580581e+04,1.738505421629405464e+04,1.741711982935684500e+04,1.745550975903338986e+04,1.749715857486086315e+04,1.754198423006740632e+04,1.758989352110799518e+04,1.764078274313328438e+04,1.764441219312636531e+04,1.770089353615135769e+04,1.775998022138208034e+04,1.782458034095756011e+04,1.788844963885803008e+04,1.795448881299112691e+04,1.802555491421034094e+04,1.809545105656416854e+04,1.816702949583833106e+04,1.824310523463287973e+04,1.831752712341063307e+04,1.839607154899823945e+04,1.847557292852978571e+04,1.855292281628146884e+04,1.863381035152741242e+04,1.871219978906997130e+04,1.879373644269729266e+04,1.887531090745326946e+04,1.895386894308801857e+04,1.903498021364159649e+04,1.911272533044294687e+04,1.919263552550095483e+04,1.921865469372435473e+04,1.929669334030550090e+04,1.937056217942826333e+04,1.944596426093718037e+04,1.951686990507427254e+04,1.958894462358517922e+04,1.965620979661960155e+04,1.972429380490537733e+04,1.978727237600638182e+04,1.984787979748842190e+04,1.990597004983696388e+04,1.996140330456788070e+04,2.001404649262924795e+04,2.006377389080449939e+04,2.011046772239636630e+04,2.015401876771010575e+04,2.019432697913565789e+04,2.023130209496384487e+04,2.026205844911222812e+04,2.029214803814867628e+04,2.031589909113812610e+04
1.780779518262669444e+04,1.784550940246784012e+04,1.788353126455680467e+04,1.791861900287744356e+04,1.795662897922244156e+04,1.799430700390099082e+04,1.803143939174860134e+04,1.806480857209433452e+04,1.810022684037225554e+04,1.813447350693866611e+04,1.816435907476089778e+04,1.819568101461883634e+04,1.822525353738805279e+04,1.824992824503782322e+04,1.827549460840065149e+04,1.829585049178099143e+04,1.831382630560916732e+04,1.833226294476038311e+04,1.834511028861103114e+04,1.835523624420730630e+04,1.836255807196907699e+04,1.836700972034619190e+04,1.836854242612663074e+04,1.836712521108434885e+04,1.836274526900181081e+04,1.835540823789278511e+04,1.834513835312094307e+04,1.833197847805509809e+04,1.831302350259645027e+04,1.829428918690487626e+04,1.826992879049520707e+04,1.824601197373861214e+04,1.821670948076903005e+04,1.818813919484795770e+04,1.815448959734308301e+04,1.811892205553335953e+04,1.808463705895768362e+04,1.804583183838427067e+04,1.800571991608376266e+04,1.796452594199130544e+04,1.792551336070761317e+04,1.788286971721606096e+04,1.783986116944561945e+04,1.779673629133001668e+04,1.775374586504738545e+04,1.771114134306428605e+04,1.771936983099181089e+04,1.763117031001526630e+04,1.764134354970604181e+04,1.760280073571167304e+04,1.756586353122530272e+04,1.753372769304734538e+04,1.750067860753319110e+04,1.746988182626929483e+04,1.744451986552850576e+04,1.741880908672587248e+04,1.739889190945521113e+04,1.738193510099535342e+04,1.736508715099599794e+04,1.735445987782671000e+04,1.734716845601904788e+04,1.734330670761002693e+04,1.734295226787746651e+04,1.734616649575592601e+04,1.735299449305419694e+04,1.736346522788325092e+04,1.738058615667276899e+04,1.739836900235697976e+04,1.741978798862278927e+04,1.744779986811452545e+04,1.747936242972995387e+04,1.751144989025863470e+04,1.754993561055275495e+04,1.759175796972864191e+04,1.763682174412507447e+04,1.763492166715630447e+04,1.768613686472573318e+04,1.774023771648237016e+04,1.779709068583947374e+04,1.785655446640730952e+04,1.791848072012190823e+04,1.798573917627858464e+04,1.805211559694970492e+04,1.812047465727958479e+04,1.819364093393331859e+04,1.826544845871932921e+04,1.834168997082527494e+04,1.841624113526265137e+04,1.849484330965735717e+04,1.857434324465959799e+04,1.865164474806652288e+04,1.873240445599038503e+04,1.881061482679905021e+04,1.889188979722664226e+04,1.897026241460593883e+04,1.905130604405634222e+04,1.913194612378097372e+04,1.920916312924551312e+04,1.923835841570704360e+04,1.931381749743525870e+04,1.939109579889671295e+04,1.946414489788297215e+04,1.953863633890860365e+04,1.960856979672290618e+04,1.967957893721084110e+04,1.974571436850784812e+04,1.980970647794110118e+04,1.987425758134396165e+04,1.993348770278759184e+04,1.999011504959617741e+04,2.004399832584481919e+04,2.009500314880869701e+04,2.014300270973643637e+04,2.018787845424932311e+04,2.022952077645828831e+04,2.026502351311224629e+04,2.029991810197397717e+04,2.033131157202849863e+04,2.035634512822373654e+04
1.790518748204244184e+04,1.795116693297738675e+04,1.799742390513612190e+04,1.804372363256281824e+04,1.808982923265470890e+04,1.813550293298493489e+04,1.818050733575556660e+04,1.822460671335412189e+04,1.826459389109001495e+04,1.830619836538919481e+04,1.834621412371375482e+04,1.838442546730468166e+04,1.841767301884741755e+04,1.845167324091045884e+04,1.848327756340531050e+04,1.850937582359375665e+04,1.853568933571115485e+04,1.855619736157858279e+04,1.857663625549635617e+04,1.859103442837149487e+04,1.860222400428427500e+04,1.861012778287404217e+04,1.861468757154629566e+04,1.861586475561597035e+04,1.861364074753338355e+04,1.860801730911782943e+04,1.859901674169534817e+04,1.858668194009517902e+04,1.856814677421917440e+04,1.854935696124841343e+04,1.852748409125945182e+04,1.849971706074013491e+04,1.846912549759680405e+04,1.843882529474562034e+04,1.840309440627542790e+04,1.836507139537454350e+04,1.832793333235997125e+04,1.828597444410386379e+04,1.824238820736276102e+04,1.819741956567027955e+04,1.815132260320475325e+04,1.810435895337790134e+04,1.805679615832437412e+04,1.800890599294620915e+04,1.796096276753433631e+04,1.791324162319838069e+04,1.786601683439052431e+04,1.781956013269591494e+04,1.777719413707632339e+04,1.773307963176351041e+04,1.769051732119041844e+04,1.764975295308625209e+04,1.766119599009305239e+04,1.762771577439320390e+04,1.759376916819039616e+04,1.756249833797797328e+04,1.753705853040536749e+04,1.751168807646792266e+04,1.749247924180858536e+04,1.747659830546670128e+04,1.746119037503848085e+04,1.745231089688435895e+04,1.744706799794605467e+04,1.744552974369592266e+04,1.744774670082773082e+04,1.745375212073005969e+04,1.746356223244266585e+04,1.748015474779889337e+04,1.749755987263264251e+04,1.751872128495306242e+04,1.754656479503423907e+04,1.757804999684667564e+04,1.761015277710487135e+04,1.764869986875937320e+04,1.764051697922591120e+04,1.768573964287919807e+04,1.773411117826431291e+04,1.778550392514013220e+04,1.783978173686438822e+04,1.789680080740342964e+04,1.795641047331949812e+04,1.801845398391952040e+04,1.808577779635530896e+04,1.815219288022891851e+04,1.822352559876788291e+04,1.829363100685575046e+04,1.836531981005432317e+04,1.844136781418020837e+04,1.851567914814062533e+04,1.859396315832386608e+04,1.867016599035868421e+04,1.874995096322151949e+04,1.883019976294547087e+04,1.890785014088836033e+04,1.898848677001637407e+04,1.906617332284559961e+04,1.914645416812924668e+04,1.917620211311886669e+04,1.925248180958125158e+04,1.933089010075095575e+04,1.940536425024340861e+04,1.948158314243305358e+04,1.955352954011230031e+04,1.962684324213361833e+04,1.969555472861335147e+04,1.976239208964063437e+04,1.983005553016837803e+04,1.989263911351191928e+04,1.995285593228382641e+04,2.001055101557294256e+04,2.006557500579871703e+04,2.011778484468706301e+04,2.016704449621125241e+04,2.021322570090662339e+04,2.025620875488535967e+04,2.029588330587057862e+04,2.033214915765094338e+04,2.036212433022030746e+04,2.039132614999607904e+04
1.800371622458778438e+04,1.805817836942206486e+04,1.811289636068107211e+04,1.816761191706324462e+04,1.822504764485912165e+04,1.827896778352695401e+04,1.833210097589201177e+04,1.838418707825310412e+04,1.843496899948883220e+04,1.848419415728937020e+04,1.853161594628941384e+04,1.857699520870737615e+04,1.861717976140935207e+04,1.865780245696828933e+04,1.869572473738694680e+04,1.873075165956257842e+04,1.875980406668403884e+04,1.878852516461684718e+04,1.881096677485876717e+04,1.883279386178479763e+04,1.884811069255822804e+04,1.885971970794050139e+04,1.886755253874056507e+04,1.887444817700787098e+04,1.887460974369785981e+04,1.886803446166473441e+04,1.886051413504671655e+04,1.884920526556763798e+04,1.883417287852152367e+04,1.881261249559311545e+04,1.879042048105617869e+04,1.876193378972180653e+04,1.873310628010719665e+04,1.869830195033163182e+04,1.866061120667000068e+04,1.862024305129269487e+04,1.858035382034117356e+04,1.853533007974684006e+04,1.848834799875985482e+04,1.843967316689548898e+04,1.838958132492256118e+04,1.833835660909311264e+04,1.828628974037661101e+04,1.823367617413174594e+04,1.818081422608077992e+04,1.812800319070543628e+04,1.807554146825318458e+04,1.802372471642334131e+04,1.796982182846649084e+04,1.792015401568621746e+04,1.787502216281084111e+04,1.782862501553411130e+04,1.778424896448434447e+04,1.774213768929368234e+04,1.770252112042822409e+04,1.771580069745524088e+04,1.763469726518914104e+04,1.765395544935305952e+04,1.762933539089438273e+04,1.760518733309922391e+04,1.758754570860959939e+04,1.757356840477400692e+04,1.756038915723378886e+04,1.755400159272266319e+04,1.755150004140398232e+04,1.755292127849790268e+04,1.755828394074091921e+04,1.756758901504115784e+04,1.758378311012749327e+04,1.760091129791684216e+04,1.762483917515754001e+04,1.764960156924245530e+04,1.763092986186846974e+04,1.771311051658226643e+04,1.770151561920676613e+04,1.774349043944283039e+04,1.778873519316239981e+04,1.783711964039420127e+04,1.788850523583625909e+04,1.794274603532406036e+04,1.799968956604329287e+04,1.805917765272958786e+04,1.812404596358435811e+04,1.818812416602257872e+04,1.825424600787524832e+04,1.832520565078008804e+04,1.839488637254969217e+04,1.846608269756968366e+04,1.854155513002074440e+04,1.861523844109475613e+04,1.869281306258510449e+04,1.876825691875719349e+04,1.884720539409370394e+04,1.892655768102820730e+04,1.900326918395684334e+04,1.908289725586349959e+04,1.915953844231492258e+04,1.918860868146226858e+04,1.926438031963634421e+04,1.934242092444453738e+04,1.941666481991115143e+04,1.949279432946338784e+04,1.956478806087491103e+04,1.963828760753295501e+04,1.970731766877268092e+04,1.977747948417611769e+04,1.984284644960294827e+04,1.990612828894518316e+04,1.996715899458693457e+04,2.002861757304018829e+04,2.008465911191763007e+04,2.013797836120150168e+04,2.018842989566992037e+04,2.023587540038046427e+04,2.028018454043395468e+04,2.031843573074921733e+04,2.035612577810711809e+04,2.039034583582344931e+04,2.041821952896830044e+04
1.810219432744043297e+04,1.816528949832305079e+04,1.823161271849850891e+04,1.829490738396075903e+04,1.835787843633061857e+04,1.842023933152516838e+04,1.848465023544325959e+04,1.854492683734864113e+04,1.860373959931934951e+04,1.866081120425427798e+04,1.871587058372417232e+04,1.876865451756725088e+04,1.881890922908612993e+04,1.886639196455859928e+04,1.891087254529306665e+04,1.895213488008346758e+04,1.898997842565175961e+04,1.902421958252796321e+04,1.905183871280602762e+04,1.907840913368909969e+04,1.909809461169157294e+04,1.911364763432665495e+04,1.912783962454739958e+04,1.913491429876413895e+04,1.913768855779897422e+04,1.913615463595770416e+04,1.913032937448687153e+04,1.911740478297881782e+04,1.910314832192487665e+04,1.908479959021942341e+04,1.905961780742905103e+04,1.903345596874557668e+04,1.900075485081184888e+04,1.896455410756633501e+04,1.892793778755687526e+04,1.888537991926254472e+04,1.883999313498853007e+04,1.879203604844107758e+04,1.874178207371756434e+04,1.868951766834405134e+04,1.863554048245985177e+04,1.858015742990834406e+04,1.852368269788922044e+04,1.846349191599022015e+04,1.840578895982945687e+04,1.834796006332599791e+04,1.829032793969131308e+04,1.823321232271724148e+04,1.817692798325893818e+04,1.811878441335359821e+04,1.806507034722677781e+04,1.801308298474131152e+04,1.796309886862599524e+04,1.791538092818699079e+04,1.787017710211116355e+04,1.783076669231161941e+04,1.779127884263326996e+04,1.775494803049645270e+04,1.772501433514989913e+04,1.769552150441464619e+04,1.771985691240848973e+04,1.765062803178720060e+04,1.763545314379315823e+04,1.762421331320915488e+04,1.766407167488642153e+04,1.766085052419523709e+04,1.766169354386735358e+04,1.766660219412785955e+04,1.762842515895608813e+04,1.764136386268743081e+04,1.770842311561602401e+04,1.768211364021530608e+04,1.770671247703509289e+04,1.773809538517671172e+04,1.777003311172730173e+04,1.780853067333588842e+04,1.785039917711389717e+04,1.789550582679692889e+04,1.794370986094346154e+04,1.799486354533935082e+04,1.804881311605506926e+04,1.810539966435541282e+04,1.816445995611022227e+04,1.822881117078708485e+04,1.829231008494706475e+04,1.835777452344007907e+04,1.842798383439067402e+04,1.849685184367140755e+04,1.856716033843951300e+04,1.864165769025421469e+04,1.871431194191452232e+04,1.879077770920863259e+04,1.886506736120791174e+04,1.894279093837246182e+04,1.901800373038742691e+04,1.909627276869706111e+04,1.917453825639587012e+04,1.919966604540223489e+04,1.927746398345305352e+04,1.935179517771187238e+04,1.942835373671352863e+04,1.950110934412528877e+04,1.957571335642936174e+04,1.964617884425912052e+04,1.971523431848947075e+04,1.978557901900692377e+04,1.985128093511270708e+04,1.991504674171455554e+04,1.997955292708901106e+04,2.003893010098644299e+04,2.009586650392980664e+04,2.015020192916583619e+04,2.020178149484010646e+04,2.025045655718608759e+04,2.029608567648532335e+04,2.033853562596937991e+04,2.037768243250466185e+04,2.041062638342258288e+04,2.044284617584256921e+04
1.819950226821959950e+04,1.827428531913561164e+04,1.834633028876336175e+04,1.841831066780094989e+04,1.849286495564234792e+04,1.856378159942626371e+04,1.863662566866524867e+04,1.870523340389961959e+04,1.877512708879669663e+04,1.884019811859136098e+04,1.890305582696810598e+04,1.896341245230787899e+04,1.902385445859679021e+04,1.907838065990235191e+04,1.912960849255832727e+04,1.917730009606535896e+04,1.921839856186477118e+04,1.920822846024562023e+04,1.924410394690843532e+04,1.927568417708939523e+04,1.929989460289885756e+04,1.931956107381766196e+04,1.933753269114025170e+04,1.934786616897207568e+04,1.935345922032895032e+04,1.935429845224609016e+04,1.935039710476211621e+04,1.934179520354463602e+04,1.932855952648399398e+04,1.930784775610294309e+04,1.928565393816598225e+04,1.925624207550636493e+04,1.922567161983746337e+04,1.918824221967734047e+04,1.919723738850315567e+04,1.915266369470814243e+04,1.910487991097883787e+04,1.905416296025202610e+04,1.900080596732301638e+04,1.894511634027055698e+04,1.888741374719084706e+04,1.882802800582550117e+04,1.876439750703028403e+04,1.870265907078480814e+04,1.864026590773562202e+04,1.857756620275980094e+04,1.851197106942048413e+04,1.844969091999184457e+04,1.838813361515721772e+04,1.832763005303853424e+04,1.826552701737202005e+04,1.820807713846085244e+04,1.815260872128405026e+04,1.809940363133451319e+04,1.804872741839819355e+04,1.800082799558495753e+04,1.795593449020019034e+04,1.791425627353324671e+04,1.787902140859331121e+04,1.784432978453591932e+04,1.781335680711187888e+04,1.778928400750004221e+04,1.776611242444076925e+04,1.775003522156504914e+04,1.773805691808785195e+04,1.773021828577521956e+04,1.772653978492689203e+04,1.772702228343242314e+04,1.773164789585387916e+04,1.774038092735756072e+04,1.775316890644590603e+04,1.776994368981654407e+04,1.779368052682073903e+04,1.781817184811440529e+04,1.784941469460327062e+04,1.788423411292146193e+04,1.791947316486833734e+04,1.796106606145758997e+04,1.800582985475813621e+04,1.805361535022719181e+04,1.810426800726121292e+04,1.815762888560429565e+04,1.821353550915815867e+04,1.827479825478582643e+04,1.833529259694556822e+04,1.839783166905879625e+04,1.846224561962191365e+04,1.853130262031484745e+04,1.859894990924207377e+04,1.866796017060981831e+04,1.874107293786492664e+04,1.881229250336621772e+04,1.888725066920777317e+04,1.895999712705952697e+04,1.903611895134128281e+04,1.910970922570186667e+04,1.918631117692869157e+04,1.920990315009761252e+04,1.928635964975756360e+04,1.935951575466906070e+04,1.943507300117786508e+04,1.950700287819400546e+04,1.958096164999838220e+04,1.965096263090579305e+04,1.971973591249546735e+04,1.978998084259344614e+04,1.985576232539731427e+04,1.991978456734548672e+04,1.998472034453757806e+04,2.004469311153006856e+04,2.010238473661511671e+04,2.015762672229792224e+04,2.021025472205868573e+04,2.026010953764960868e+04,2.030703818645951105e+04,2.035089502791827545e+04,2.039154293633930502e+04,2.042885450618248433e+04,2.045993376983606140e+04
1.829461116639385000e+04,1.837809688767523039e+04,1.845886938441349776e+04,1.854250250389979919e+04,1.862570164451710298e+04,1.870522534989591804e+04,1.878656485083731241e+04,1.886357684268552111e+04,1.894171553169962135e+04,1.901488690723772743e+04,1.908851405019883532e+04,1.915656133138432051e+04,1.917436247416090919e+04,1.923604702642592019e+04,1.929415609760288498e+04,1.934843025721865706e+04,1.939862762350571575e+04,1.944452553350751987e+04,1.948592213065695250e+04,1.951972891228355002e+04,1.955161759632587200e+04,1.957853922421822790e+04,1.959749723773798905e+04,1.961131510079052532e+04,1.961994482494331896e+04,1.962626221348007675e+04,1.962448523047618801e+04,1.961465271220172872e+04,1.960262173950675060e+04,1.958559284227309399e+04,1.956078944741562009e+04,1.953416833585538552e+04,1.950009813199500786e+04,1.946168559268611716e+04,1.941916130754616461e+04,1.937570954409873229e+04,1.932575092622436932e+04,1.926955831778154243e+04,1.921332669489024556e+04,1.920458818264503498e+04,1.914336953284073388e+04,1.908018878040544223e+04,1.901254427355335793e+04,1.894652493028450408e+04,1.887964396528262296e+04,1.880938268750833231e+04,1.874189067083640839e+04,1.867464904234313872e+04,1.860509969393987558e+04,1.853943146152474219e+04,1.847507237291359343e+04,1.840940254798080423e+04,1.834863397352839820e+04,1.829012173870901461e+04,1.823414838277158560e+04,1.818097731159796240e+04,1.813085158017353388e+04,1.808399287542706588e+04,1.804060070476445253e+04,1.800085179311528918e+04,1.796489968878478976e+04,1.793590696240126272e+04,1.790792743656082894e+04,1.788710682601883309e+04,1.786743813038803637e+04,1.785504006308052340e+04,1.784689164201341919e+04,1.784299194303891272e+04,1.784332048010418657e+04,1.784783830654309713e+04,1.785648921042925213e+04,1.786920098476324347e+04,1.788892767091983114e+04,1.790949074272956932e+04,1.793684869034838630e+04,1.796481845389801310e+04,1.799932320445860387e+04,1.803719233640667517e+04,1.807828103616143926e+04,1.811944041734078201e+04,1.816652092232054565e+04,1.821635696918648318e+04,1.826878774657918257e+04,1.832661892680416349e+04,1.838374394222220872e+04,1.844297377437420073e+04,1.850414424752537161e+04,1.856709148518738220e+04,1.863457634301474900e+04,1.870058277958046529e+04,1.876787809263623785e+04,1.883919628701044712e+04,1.890858110529134865e+04,1.898164432578702690e+04,1.905247591282150825e+04,1.912664202577804099e+04,1.919827612776544993e+04,1.921988752120768186e+04,1.929456918710836908e+04,1.936613027153880103e+04,1.944028183208836708e+04,1.951099980774664436e+04,1.958394698219429119e+04,1.965313949839834822e+04,1.972419177239370765e+04,1.979116070739820134e+04,1.985675413134080009e+04,1.992364707127123256e+04,1.998594778666950879e+04,2.004633566984103527e+04,2.010463247265515383e+04,2.016066170885195606e+04,2.021424963802634738e+04,2.026522634956683032e+04,2.031342693623731611e+04,2.035869274509118986e+04,2.040087269156295224e+04,2.043982462092072819e+04,2.047541669981082669e+04
1.798580617071333108e+04,1.807809752792984364e+04,1.816668560305691790e+04,1.825914328773299349e+04,1.835114999306117534e+04,1.844235261150446604e+04,1.853239688271074556e+04,1.861706912895551068e+04,1.870376021395032876e+04,1.878824168397439644e+04,1.886636076608565054e+04,1.894543311425702996e+04,1.901751728464767803e+04,1.908989704162182170e+04,1.915471423866215628e+04,1.921547632091943524e+04,1.927566404036246240e+04,1.927747828091922565e+04,1.932459944975838880e+04,1.936293575062265154e+04,1.939999159161065472e+04,1.943178172982530668e+04,1.945437881248429767e+04,1.947533183447585907e+04,1.948695837891937117e+04,1.949304363075149013e+04,1.949359189093258465e+04,1.948863794786846847e+04,1.947824710449157283e+04,1.945870300860924181e+04,1.943775923645388684e+04,1.940793455032963539e+04,1.937706001680178451e+04,1.933769389276567381e+04,1.929389611435294501e+04,1.929604959557161783e+04,1.924419647935888497e+04,1.918875804635422537e+04,1.913006021500268253e+04,1.906467039771776763e+04,1.900048852460269700e+04,1.893411455836822279e+04,1.886211405408568680e+04,1.879248838581983000e+04,1.871797802957377280e+04,1.864664878260233672e+04,1.857505209946219111e+04,1.849969558677144232e+04,1.842870235653850250e+04,1.835466371744815842e+04,1.828574285894181230e+04,1.821444463032734348e+04,1.814896634705626639e+04,1.808568700374066248e+04,1.802489845788225648e+04,1.796288391008484177e+04,1.790786076623116969e+04,1.785607642176412628e+04,1.780773470442878897e+04,1.776301543751271674e+04,1.772611650112923235e+04,1.773920835329088732e+04,1.770625454663141863e+04,1.768134539330418920e+04,1.765668875802130788e+04,1.764018559388321592e+04,1.762791931371964165e+04,1.761594448778382502e+04,1.761212098204292124e+04,1.761246297368605155e+04,1.761691056876012590e+04,1.762933154246493359e+04,1.764175131896973471e+04,1.765800841992243659e+04,1.768192210322842584e+04,1.770550557666504756e+04,1.773647984675772022e+04,1.776686273553944193e+04,1.775419237881849403e+04,1.779472970771515975e+04,1.783813518759747967e+04,1.788425587267463561e+04,1.793293746205003117e+04,1.798402510528065613e+04,1.803736407439236064e+04,1.809280029961487162e+04,1.815018076864388422e+04,1.820935379175329581e+04,1.827409836971017648e+04,1.833639997326798039e+04,1.840004806164151523e+04,1.846489638330912567e+04,1.853468183387402678e+04,1.860148883619910339e+04,1.866906127351976465e+04,1.874109906558826333e+04,1.880976038070139475e+04,1.888256367155732005e+04,1.895172438771306770e+04,1.902469697150052525e+04,1.909375107217751793e+04,1.916252042639619322e+04,1.923459542959654937e+04,1.930230537419120083e+04,1.931905999671827885e+04,1.938884221664472716e+04,1.945366595090209739e+04,1.951719679541545338e+04,1.958305447017503320e+04,1.964345642127946485e+04,1.970202649608161300e+04,1.975858399054699112e+04,1.981294924669020111e+04,1.986494480264073354e+04,1.991439665237971349e+04,1.996113560177304316e+04,2.000499870542195276e+04,2.004583076695265481e+04,2.008348588369347272e+04
1.807415970865872805e+04,1.817474493805260863e+04,1.827561043316221912e+04,1.837638787592298468e+04,1.847670391214234405e+04,1.857618188087648014e+04,1.867444362271876889e+04,1.876727989084736328e+04,1.886199809657834703e+04,1.895437598859571153e+04,1.904404887970475829e+04,1.913066052975348430e+04,1.921011857776853140e+04,1.928960529546203907e+04,1.931115547948714811e+04,1.938232377260542125e+04,1.944505258908180986e+04,1.950292287827661494e+04,1.955569836532871705e+04,1.960316720710895606e+04,1.964514361743626068e+04,1.968146935499407118e+04,1.970824805434557493e+04,1.973292806137853768e+04,1.974790524927582010e+04,1.975691340090541053e+04,1.975995160939730704e+04,1.975705158147975453e+04,1.974827770460012835e+04,1.973372687339351978e+04,1.970976078035047976e+04,1.968407932462383178e+04,1.964932806125926436e+04,1.960949745155501296e+04,1.956483848095498979e+04,1.951562831194329192e+04,1.946216843398351921e+04,1.940478261639425182e+04,1.934381468135063187e+04,1.927962611645256402e+04,1.925888895448614494e+04,1.918934548740240280e+04,1.911397514877156937e+04,1.904071143371431390e+04,1.896241150795537396e+04,1.888706927431933582e+04,1.880748666795931058e+04,1.873170579837949481e+04,1.865246246947412146e+04,1.857783656475821044e+04,1.850048624495224794e+04,1.842852096658339724e+04,1.835450950048517552e+04,1.828658529337588698e+04,1.821721610082179541e+04,1.815455668536032317e+04,1.809493666298704920e+04,1.803859321520975209e+04,1.798573834842655924e+04,1.793655832269892562e+04,1.789121333255051286e+04,1.784983743635140127e+04,1.781253872776823118e+04,1.778343329700635513e+04,1.775452696217046469e+04,1.773391670991654973e+04,1.776372195420670323e+04,1.775162375108356355e+04,1.774377508650338859e+04,1.774012769009731710e+04,1.774061565302175586e+04,1.774515704922648729e+04,1.775365560982265742e+04,1.776600242537324084e+04,1.773589043652574765e+04,1.775551387410279131e+04,1.778262429866733146e+04,1.780901857441366883e+04,1.784260304629392340e+04,1.787919636255313526e+04,1.791464947478839895e+04,1.795682144945178879e+04,1.800154967198177474e+04,1.804868411414150614e+04,1.809807628397780354e+04,1.814957973375229631e+04,1.820305040696894866e+04,1.825834682752052322e+04,1.831533013679084252e+04,1.837777417879295535e+04,1.843771675884551951e+04,1.849894394153184840e+04,1.856132498658390250e+04,1.862859170755342348e+04,1.869288461217912845e+04,1.875794225501932669e+04,1.882745693465106888e+04,1.889364312346099177e+04,1.896019514818207244e+04,1.903076130041570286e+04,1.909762049014409422e+04,1.916441906412979006e+04,1.923475699772912776e+04,1.930097126064682379e+04,1.931648503137929947e+04,1.938527432081018924e+04,1.944936054955879808e+04,1.951240965949266683e+04,1.957803930551893427e+04,1.963846583115891553e+04,1.969730713814726914e+04,1.975437559368324582e+04,1.980948275772566558e+04,1.986244062095833942e+04,1.991306297621410340e+04,1.996116690857018693e+04,2.000657438691044808e+04,2.004911393755918834e+04,2.008862237865946372e+04
1.815412231823324692e+04,1.826279442417796236e+04,1.837570183171742246e+04,1.848461739380762447e+04,1.859307323909481056e+04,1.870067010109248804e+04,1.880700683771952754e+04,1.891168238573454437e+04,1.901429778874269687e+04,1.911445828972640447e+04,1.921177547746148775e+04,1.930586947460181545e+04,1.934625133157911478e+04,1.943283972735644784e+04,1.951134589361830149e+04,1.958907610829750774e+04,1.965812608620655374e+04,1.972578972634125967e+04,1.978426508676991216e+04,1.983709821523216669e+04,1.988408669215842383e+04,1.992505712746261270e+04,1.995614385451097041e+04,1.998469392173661618e+04,2.000318119548034156e+04,2.001528739109917660e+04,2.002472268732378143e+04,2.002408120154772769e+04,2.001342612963923602e+04,2.000028841022390407e+04,1.998108307575882645e+04,1.995225347825998324e+04,1.991771388027735520e+04,1.988144105215801392e+04,1.983621854898318998e+04,1.978607045440888032e+04,1.973131333568401169e+04,1.966850981233690982e+04,1.960557118216744857e+04,1.953910767127983854e+04,1.946570309138839366e+04,1.939338996964172111e+04,1.931494047373949434e+04,1.928856049446229008e+04,1.920682738244370557e+04,1.912783350978916860e+04,1.904449871948352666e+04,1.896099738159572007e+04,1.888156454551679781e+04,1.879900264888926176e+04,1.871750040674049524e+04,1.864130208300414961e+04,1.856306465023150668e+04,1.849086366079040454e+04,1.841725662899494637e+04,1.835033229914653930e+04,1.828646931539490470e+04,1.822591348016014672e+04,1.816493547958240379e+04,1.811161346316721756e+04,1.806217120542118209e+04,1.801674426770335413e+04,1.797943175920430804e+04,1.794234560606014566e+04,1.790951944709205418e+04,1.788499570526892785e+04,1.786076986464153742e+04,1.784484801536818850e+04,1.783318148744732025e+04,1.782571507171573467e+04,1.781835515821888112e+04,1.782307452600789838e+04,1.782770830715345801e+04,1.783616181097115623e+04,1.784830946600818424e+04,1.786401728111843113e+04,1.788715816207337775e+04,1.790956464563074405e+04,1.793910074586200062e+04,1.796761515229861834e+04,1.800295109573108493e+04,1.804095668677330832e+04,1.808148526813404169e+04,1.812439269040676299e+04,1.816558970811823383e+04,1.821284614537181915e+04,1.826206922199783730e+04,1.831312959832459455e+04,1.836590188987983856e+04,1.842416401244906592e+04,1.847998987852982827e+04,1.853717238638797426e+04,1.859559806755682803e+04,1.865515482909046113e+04,1.871573112013522768e+04,1.878104854104985134e+04,1.884331996438244823e+04,1.890627065514907008e+04,1.897357657278340776e+04,1.903751987739850301e+04,1.910177436379576102e+04,1.916620730475991149e+04,1.923443057161103934e+04,1.929879119620332494e+04,1.931273093751742272e+04,1.938021519153678673e+04,1.944327732674655272e+04,1.950558489781880053e+04,1.956695883988589048e+04,1.963100276964504155e+04,1.968994257667937200e+04,1.974737976675597019e+04,1.980311744911316782e+04,1.985695715735683916e+04,1.990870033564453479e+04,1.995814996810833691e+04,2.000511233248404460e+04,2.004939885641023284e+04,2.009082805265090428e+04
1.823314161944281659e+04,1.834957633680626168e+04,1.846639212357718498e+04,1.858705166553641902e+04,1.870337654703983571e+04,1.881883505486583454e+04,1.893681063379187253e+04,1.904925107659431524e+04,1.915955723936247523e+04,1.926731165294631501e+04,1.932575835080002435e+04,1.942716333422911703e+04,1.952481993696308928e+04,1.961456426345865475e+04,1.970362600255745929e+04,1.978785539945960045e+04,1.986318664977536537e+04,1.993682319510544767e+04,2.000101146720806719e+04,2.005924516680726083e+04,2.011130513336136937e+04,2.015700262089082389e+04,2.019618090040420066e+04,2.022871667361696018e+04,2.025085073385506985e+04,2.026621178091451293e+04,2.027846159242061549e+04,2.028027439959492767e+04,2.027538415441769757e+04,2.026021608218160691e+04,2.024225183806769201e+04,2.021430531112893368e+04,2.018394933701297850e+04,2.014404975650136475e+04,2.009856099274512962e+04,2.004778601732253446e+04,1.999205569267520332e+04,1.993172644087369554e+04,1.986343614200130105e+04,1.979506230744047207e+04,1.972328637353339582e+04,1.964476631855059532e+04,1.956369264921839931e+04,1.948433285120353685e+04,1.939953123527709977e+04,1.931353920404709061e+04,1.928075241459975950e+04,1.919379240697101341e+04,1.910698572903400054e+04,1.902454713557084324e+04,1.893934218980200239e+04,1.885553266413556412e+04,1.877732901108829537e+04,1.869744461436761776e+04,1.862388209429496783e+04,1.854925069734160206e+04,1.848155751781020081e+04,1.841329675902609597e+04,1.835248123116898932e+04,1.829541423414353631e+04,1.824226079482835485e+04,1.819315638387794024e+04,1.814820728164757020e+04,1.810749122449816787e+04,1.807502800661863876e+04,1.804291601515017101e+04,1.801511037544711144e+04,1.799558079746007570e+04,1.798029961357015418e+04,1.796521424053574447e+04,1.795822223137816763e+04,1.795523475949632120e+04,1.795614054553586175e+04,1.796081668570594047e+04,1.797312047683753190e+04,1.798493527940395870e+04,1.800010364268335979e+04,1.801847671716721379e+04,1.804388793916560826e+04,1.806822383071531658e+04,1.809928925797223928e+04,1.813295510063786060e+04,1.816513163042790256e+04,1.820359052307606908e+04,1.824423837458799244e+04,1.828694851952834870e+04,1.833159996620973106e+04,1.837807740046028630e+04,1.842627098531695083e+04,1.847607596838593599e+04,1.852739211187243927e+04,1.858012296328239609e+04,1.863417498749005608e+04,1.868945658320974326e+04,1.874587700886861421e+04,1.880334524442066322e+04,1.886176881674813922e+04,1.892485663289565127e+04,1.898489444742642809e+04,1.904558991986853653e+04,1.910683325778561994e+04,1.916850778272256139e+04,1.923423975957010407e+04,1.929638848745476571e+04,1.930841802342361188e+04,1.937428286932056653e+04,1.943603099643241148e+04,1.949733304136368679e+04,1.955801148826163262e+04,1.961788059144737781e+04,1.968052660201842082e+04,1.973818353436436155e+04,1.979443315584299853e+04,1.984906672418257222e+04,1.990187327822268708e+04,1.995264141122973524e+04,2.000116119319605059e+04,2.004722621832726873e+04,2.009063575141216279e+04
1.830303191005197004e+04,1.843076188996125711e+04,1.855502204727404751e+04,1.868315163948171539e+04,1.880699460887143505e+04,1.893378332244211924e+04,1.905544853281092946e+04,1.917912484043033328e+04,1.929683751358574955e+04,1.936176078464937746e+04,1.947756668563492713e+04,1.958606384138826979e+04,1.969067043686477700e+04,1.979098710563726490e+04,1.988663023590639932e+04,1.997723443606673391e+04,2.005874896945996443e+04,2.013828499978693435e+04,2.020813991517608520e+04,2.027542839172587264e+04,2.033255873295775382e+04,2.038300701782724354e+04,2.042660244841946405e+04,2.045957050201162929e+04,2.048910099564306438e+04,2.050785229866908048e+04,2.051944301926146727e+04,2.052752480776284938e+04,2.052488888378758566e+04,2.051163325363543117e+04,2.049515767587302253e+04,2.046836242236013641e+04,2.043874328037921805e+04,2.039925620656152023e+04,2.035382417851884384e+04,2.030276178408309352e+04,2.024641328644714667e+04,2.018515015349516761e+04,2.011566963808768196e+04,2.004578180063684704e+04,1.996850442924725940e+04,1.989173512676029350e+04,1.980846657233306905e+04,1.972666596323577687e+04,1.963929077584898914e+04,1.955056819029740291e+04,1.946097338824492181e+04,1.937480812461776077e+04,1.928488718645391054e+04,1.924558875210484257e+04,1.915713750941245235e+04,1.907381385587117984e+04,1.898847968433992355e+04,1.890525903753910097e+04,1.882831848846573848e+04,1.875035003765855799e+04,1.867929320767195895e+04,1.860772501789187663e+04,1.854358285274394439e+04,1.848321097341371933e+04,1.842677435694041196e+04,1.837440665995294694e+04,1.832621069783496205e+04,1.828225923036475433e+04,1.824259603585372679e+04,1.820723725212598220e+04,1.818012352557404665e+04,1.815333470963619766e+04,1.813471243612814578e+04,1.811627384711342165e+04,1.810584647926362231e+04,1.809936130231493735e+04,1.809669766863985569e+04,1.809772401942574652e+04,1.810230023296843865e+04,1.811027991597540677e+04,1.812547225134324981e+04,1.813980862608633470e+04,1.815709368936868850e+04,1.818112738406425342e+04,1.820386550356863881e+04,1.823305262069427408e+04,1.826067512156808516e+04,1.829447161250482895e+04,1.833037891114439117e+04,1.836437430830721860e+04,1.840417922953472589e+04,1.844577367731288541e+04,1.848906547496141866e+04,1.853396906896328437e+04,1.858040476777285221e+04,1.862829779860944836e+04,1.867757720585618517e+04,1.872817461732198717e+04,1.878002290682858438e+04,1.883305478332372149e+04,1.888720133796782466e+04,1.894239058137682150e+04,1.899854600341737387e+04,1.905558518764097244e+04,1.911341851161248633e+04,1.917570602757023880e+04,1.923481685048420331e+04,1.929439873429338331e+04,1.930418220034622937e+04,1.936428272300885874e+04,1.942825768593343673e+04,1.948828846116020577e+04,1.954803184569143923e+04,1.960730242855701363e+04,1.966590469632385066e+04,1.972740400025094277e+04,1.978404045408274396e+04,1.983937267976618023e+04,1.989317735205739154e+04,1.994522848416119814e+04,1.999529952443466755e+04,2.004316560263306019e+04,2.008860589670261834e+04
1.836761619009022252e+04,1.850227132131316466e+04,1.863739965576474788e+04,1.876872390650777379e+04,1.890348598167186719e+04,1.903736410378621076e+04,1.916613952860256541e+04,1.929689372255781200e+04,1.937531101252336521e+04,1.949732478217955213e+04,1.961620767043711385e+04,1.973528749550838256e+04,1.984657288002155838e+04,1.995343048685032409e+04,2.005545647466139053e+04,2.015226545197371161e+04,2.024349305020875181e+04,2.032879845588514581e+04,2.040422082394684548e+04,2.047678726138683851e+04,2.053895690830826061e+04,2.059415611493564211e+04,2.064219989472161978e+04,2.068293967308144784e+04,2.071266642644425156e+04,2.073851747697245446e+04,2.075326329057724797e+04,2.076051516079326393e+04,2.076032703708528425e+04,2.075279385114018805e+04,2.073805118288702215e+04,2.071267625871417113e+04,2.068408524164388655e+04,2.064532471796745085e+04,2.060028440149829839e+04,2.054928944826102816e+04,2.049269646570092300e+04,2.043089090635112370e+04,2.036062866907284479e+04,2.028965053862830973e+04,2.021107931220828323e+04,2.013274328771789442e+04,2.004774389134533703e+04,1.996025427739141742e+04,1.987451435449859127e+04,1.978355540978239151e+04,1.969159600176740787e+04,1.959912453498330433e+04,1.950661919400346233e+04,1.941454448643239448e+04,1.932719030569004826e+04,1.928741730027151061e+04,1.919928967111799284e+04,1.911325844311216497e+04,1.903346375071335933e+04,1.895267726291855797e+04,1.887877118003365467e+04,1.880440158464887645e+04,1.873743115748994751e+04,1.867424226549375453e+04,1.861113924826943548e+04,1.855596127188700484e+04,1.850495470054185716e+04,1.845818548610247672e+04,1.841568926508622826e+04,1.838138385810196633e+04,1.834744056187526439e+04,1.831771294531994499e+04,1.829606719667065772e+04,1.827849365615876741e+04,1.826096182448192849e+04,1.825120975580613595e+04,1.824517607591665001e+04,1.824271954013491631e+04,1.824369145057929563e+04,1.824793817946960917e+04,1.825530358480382711e+04,1.826563128421604051e+04,1.828269783677591477e+04,1.829849371363091632e+04,1.831680180927523179e+04,1.834140661973829265e+04,1.836433657555904938e+04,1.839330215277263778e+04,1.842426965617694077e+04,1.845325191247751354e+04,1.848794311094112345e+04,1.852436206110785133e+04,1.855856832515395945e+04,1.859824535248355824e+04,1.863945624285069061e+04,1.868215038453557645e+04,1.872628199655550998e+04,1.876797701185598271e+04,1.881486798525429913e+04,1.886307214902734268e+04,1.891254700410357327e+04,1.896324652832691208e+04,1.901511943533562589e+04,1.906810749439909705e+04,1.912591118617361644e+04,1.918091113517936901e+04,1.923679492765443865e+04,1.929346215119407861e+04,1.930066752886545146e+04,1.935852667219450814e+04,1.941678520329264575e+04,1.947910249210070469e+04,1.953767063911393052e+04,1.959612850893745781e+04,1.965427932087634690e+04,1.971191436477345997e+04,1.976881432483266690e+04,1.982850333770792349e+04,1.988323307713092072e+04,1.993652305889572017e+04,1.998812981173960725e+04,2.003780949036643142e+04,2.008532047072649584e+04
1.843085099165028078e+04,1.856798973807645962e+04,1.870958531809670967e+04,1.885127615633833921e+04,1.899259385265313904e+04,1.913306403968587983e+04,1.926846911766377161e+04,1.935569236453843769e+04,1.949081326024996815e+04,1.962317747713605058e+04,1.974855776157620130e+04,1.987403426777047571e+04,1.999165552807753556e+04,2.010473928087583045e+04,2.021286277093784884e+04,2.031562176322285086e+04,2.041263324356218800e+04,2.050353808895940892e+04,2.058800368002036703e+04,2.066212007880548481e+04,2.073284908001613803e+04,2.079274685662501724e+04,2.084522054263020982e+04,2.089010860980578582e+04,2.087722354671941139e+04,2.090299585793167353e+04,2.092463824108114932e+04,2.093481703481476870e+04,2.093724937748746015e+04,2.093202740633889334e+04,2.091561575679568341e+04,2.089553464230845566e+04,2.091480657511745812e+04,2.088065794926992385e+04,2.083635244043183047e+04,2.078579117577965371e+04,2.072934188550795079e+04,2.066379613284487277e+04,2.059678768850120832e+04,2.052516571893310174e+04,2.044576441001630155e+04,2.036268477887773770e+04,2.028010406102010165e+04,2.019120182552695042e+04,2.010014984506534529e+04,2.000746479769214056e+04,1.991366014502104372e+04,1.981924217946821591e+04,1.972847633383446373e+04,1.963432189138981630e+04,1.954099279835590278e+04,1.944893016194310621e+04,1.935855070234750747e+04,1.927409505409258418e+04,1.923834289624233497e+04,1.915529863875539741e+04,1.907909885555360233e+04,1.900247531404643087e+04,1.893321621387972846e+04,1.886392740755210980e+04,1.880238528047746513e+04,1.874490874515476753e+04,1.869158823249512352e+04,1.864248109360196395e+04,1.859761303823621711e+04,1.855697988682854339e+04,1.852442972209831350e+04,1.849215817472912022e+04,1.846395215303116129e+04,1.844361425054768915e+04,1.842713469548127614e+04,1.841048494962579571e+04,1.840131902687816182e+04,1.839558474612375721e+04,1.839312396039647865e+04,1.839377510966308182e+04,1.839737586243750411e+04,1.840376559283232200e+04,1.841278765830886550e+04,1.842819188631675206e+04,1.844203753714362392e+04,1.845808912481242442e+04,1.848011475526148570e+04,1.850022505483921850e+04,1.852608822289027739e+04,1.854986109955512802e+04,1.857921597188760643e+04,1.860635251239340869e+04,1.863894868287333520e+04,1.867309239479890675e+04,1.870491356588376220e+04,1.874207709259298281e+04,1.878071395929655409e+04,1.881698826786290738e+04,1.885854334279007162e+04,1.890153426565299742e+04,1.894594767947366927e+04,1.899176626749511342e+04,1.903896668858628254e+04,1.908751758020030684e+04,1.913737766846898012e+04,1.918849402337023639e+04,1.924080049466085620e+04,1.929421636145882076e+04,1.929851920113139204e+04,1.935383470240212046e+04,1.940991839145126869e+04,1.946662337897298858e+04,1.952759144376710174e+04,1.958502243622083915e+04,1.964253294375821133e+04,1.969991103574127192e+04,1.975693116441546590e+04,1.981335584225770435e+04,1.986893760402506450e+04,1.992715592375351116e+04,1.998027278338014730e+04,2.003176757741588517e+04,2.008137730786055909e+04
1.848515911997738294e+04,1.863194051019151811e+04,1.877936625491443556e+04,1.892696305641828803e+04,1.907424938486065366e+04,1.921698929080113885e+04,1.931205311713492847e+04,1.945551054077781737e+04,1.959669295448358753e+04,1.973510879481799202e+04,1.986652896052578581e+04,1.999798744694667403e+04,2.012524294056987856e+04,2.024416878217706108e+04,2.035803750035286066e+04,2.046642742474499391e+04,2.056893811906297924e+04,2.066519318405154627e+04,2.075484301358295488e+04,2.083756747293783701e+04,2.090951276297459844e+04,2.092751206647930667e+04,2.098434029205833212e+04,2.103335753773554461e+04,2.107442994109730353e+04,2.110382994713869994e+04,2.112879238911325228e+04,2.114204030038844212e+04,2.114725324753083987e+04,2.114451982301674434e+04,2.113397306596898125e+04,2.111215277303403127e+04,2.108655723709214362e+04,2.105016434209336876e+04,2.100691558167777839e+04,2.095715273434933624e+04,2.090125242394348606e+04,2.088971851469913963e+04,2.081917408034953405e+04,2.074736828924246947e+04,2.066760117354264366e+04,2.058758789637466543e+04,2.050061303374511772e+04,2.041081208075699396e+04,2.031871826386012253e+04,2.022854890757828252e+04,2.013348567175789503e+04,2.003771671354136197e+04,1.994175301835752907e+04,1.984608985561595182e+04,1.975120308371412102e+04,1.965754571104681236e+04,1.956554475209774682e+04,1.947941369871445931e+04,1.939190968515488203e+04,1.930716163812560262e+04,1.927940596904620179e+04,1.920110998661263147e+04,1.913013566993499990e+04,1.905915987986794789e+04,1.899587789980374509e+04,1.893663903733904590e+04,1.888152481645834632e+04,1.883058217522082850e+04,1.878382510340752196e+04,1.874123661872211960e+04,1.870277104736008914e+04,1.866835657073723269e+04,1.864176237532851519e+04,1.861515862495673355e+04,1.859613803744086181e+04,1.858069144628656795e+04,1.856479376998104271e+04,1.855602154893739498e+04,1.855033459332224447e+04,1.854756271784086130e+04,1.854753688834779314e+04,1.855009191173600266e+04,1.855506889893853804e+04,1.856231746680955985e+04,1.857556831355934264e+04,1.858695452892940375e+04,1.860023011672211578e+04,1.861529455728453468e+04,1.863592523887462448e+04,1.865432879165775375e+04,1.867816077912610490e+04,1.869967988814043929e+04,1.872654762341789319e+04,1.875106870434878510e+04,1.878090862522859243e+04,1.880840985249230289e+04,1.884123764543340076e+04,1.887557558494457044e+04,1.890764223525646958e+04,1.894507240995860775e+04,1.898407099874661071e+04,1.902465202606335515e+04,1.906304810140092741e+04,1.910681696423731046e+04,1.915215998390485765e+04,1.919905052439545398e+04,1.924744669704505941e+04,1.929728974326813477e+04,1.929837703283235896e+04,1.935085753365061828e+04,1.940449250940058846e+04,1.945914573076361557e+04,1.951466061807799269e+04,1.957465682919643587e+04,1.963133826095479890e+04,1.968829479655335308e+04,1.974529541963050724e+04,1.980209404931159224e+04,1.985843162197517813e+04,1.991403846867999528e+04,1.996863695868680952e+04,2.002566143530196860e+04,2.007738474771016627e+04
1.853485771916739759e+04,1.868672941312106559e+04,1.883933702793900738e+04,1.899219739724841202e+04,1.914481876030939748e+04,1.929670250975733506e+04,1.939722305855929153e+04,1.954612173254883965e+04,1.969277119086106541e+04,1.983666694740630919e+04,1.997730852509083343e+04,2.011050428216462024e+04,2.024319376306259073e+04,2.036752175227261614e+04,2.049037405137438327e+04,2.060401206055126386e+04,2.071167614607754513e+04,2.081297387670702301e+04,2.090753968890217948e+04,2.094493022726909840e+04,2.102510474220119067e+04,2.109402325533557450e+04,2.115511707446104265e+04,2.120819879665039480e+04,2.125312252842396265e+04,2.128978554085610085e+04,2.131452393275266513e+04,2.133454930480348412e+04,2.134268373071559472e+04,2.134261691399739357e+04,2.133447910492858500e+04,2.131484048919027555e+04,2.129113718806093675e+04,2.125641245311504463e+04,2.121458109754181351e+04,2.116599133342702407e+04,2.111102790531484061e+04,2.105010912407987053e+04,2.098368356774805579e+04,2.090855766917616711e+04,2.088264177903346717e+04,2.079897961378778564e+04,2.071180323225827306e+04,2.062527253813491552e+04,2.053272188788009225e+04,2.043829917951475363e+04,2.034255028400110314e+04,2.024601277884974843e+04,2.014921162959100911e+04,2.005265505088400096e+04,1.995683059618712286e+04,1.986220152211294044e+04,1.976920347009267425e+04,1.968202123809384648e+04,1.959348743932094658e+04,1.950769899963820353e+04,1.942877986593355308e+04,1.934936532579490449e+04,1.927733209411214921e+04,1.925532827233677381e+04,1.919088290456021787e+04,1.913044408999659936e+04,1.907408266088532400e+04,1.901804854046684341e+04,1.897369674979051342e+04,1.892964129822270479e+04,1.888960604214182240e+04,1.885350334786943858e+04,1.882504480618369416e+04,1.879646703128196532e+04,1.877526363259463687e+04,1.875362328122474719e+04,1.873903641452969168e+04,1.872749425517962663e+04,1.871497667203895980e+04,1.870898636422603158e+04,1.870550481863450841e+04,1.870436195171182044e+04,1.870539649046337581e+04,1.870845833470474463e+04,1.871341059345612302e+04,1.872397282050031936e+04,1.873235783551490749e+04,1.874231711858860217e+04,1.875377962393042981e+04,1.876669207400261075e+04,1.878485295864602085e+04,1.880057798522795201e+04,1.881769534972653491e+04,1.884004218905253219e+04,1.885999482344117132e+04,1.888522557753763977e+04,1.890815140641367179e+04,1.893643914622155717e+04,1.896253417651375639e+04,1.899409005756952683e+04,1.902735308041621465e+04,1.905859734296481474e+04,1.909542235179073759e+04,1.913407218165366794e+04,1.917456401891051792e+04,1.921315259154344676e+04,1.925732720476042596e+04,1.930329538799202419e+04,1.930086952088153339e+04,1.935023821332870284e+04,1.940116265560590546e+04,1.945351894142496167e+04,1.950715949627506780e+04,1.956191333802201552e+04,1.961758674351809896e+04,1.967774323100395850e+04,1.973458177466699271e+04,1.979163498773486936e+04,1.984863268503299332e+04,1.990529104477891815e+04,1.996131543867220171e+04,2.001640352427813923e+04,2.007395668790678610e+04
1.858052240681234980e+04,1.873673717367349309e+04,1.889378125601180363e+04,1.905116466516436776e+04,1.920838851234430331e+04,1.931477840089233359e+04,1.947396093059377745e+04,1.962761498737591319e+04,1.977906585571556934e+04,1.992779906134313205e+04,2.007330343583374633e+04,2.021139279166996130e+04,2.034895972998897196e+04,2.048181106559137697e+04,2.060586259137053275e+04,2.072791683341065072e+04,2.084032844505817047e+04,2.089619303934962954e+04,2.099535439015613520e+04,2.108736552963033319e+04,2.116827878553912160e+04,2.124509196058847010e+04,2.131030676105563180e+04,2.136735284947935725e+04,2.141607210740476148e+04,2.145635058781085536e+04,2.148812002309932723e+04,2.150778567214289797e+04,2.151895875351320137e+04,2.152529322667955421e+04,2.151618841194990091e+04,2.150254479979435564e+04,2.148100682053848868e+04,2.144826014286885038e+04,2.140818932605130249e+04,2.136114734082762152e+04,2.130752533417040831e+04,2.124774956148970523e+04,2.118227795872828574e+04,2.110796002889034571e+04,2.103257459308870602e+04,2.094935993586937548e+04,2.091264878390182275e+04,2.082630586287024198e+04,2.073386170484480681e+04,2.063944615286524640e+04,2.054361866054454003e+04,2.044692983521515271e+04,2.034991687681051553e+04,2.025309920682298252e+04,2.015697434043223620e+04,2.006201405191287631e+04,1.996866087967899512e+04,1.988106918182023219e+04,1.979214547952127759e+04,1.970595281416387297e+04,1.962657769040780840e+04,1.954672530886268942e+04,1.947419396403362043e+04,1.940155489284463692e+04,1.933657883986947127e+04,1.927554881957641919e+04,1.926483271947712637e+04,1.921181573290741653e+04,1.916281870107838768e+04,1.911779399100769660e+04,1.908044107048137812e+04,1.904311210434924578e+04,1.900944476738842786e+04,1.898308652029489167e+04,1.895629329989635153e+04,1.893647653108448139e+04,1.891585193051220267e+04,1.890183811876585241e+04,1.889043718375512981e+04,1.888145967661120812e+04,1.887472164199227700e+04,1.886623535530472873e+04,1.886346235484068166e+04,1.886243951030066819e+04,1.886303322053939337e+04,1.886512783867225517e+04,1.886862703080518986e+04,1.887726856662615319e+04,1.888337058726474061e+04,1.889071137934108265e+04,1.889927672408366925e+04,1.890907196432026103e+04,1.892392460462218150e+04,1.893626986682345159e+04,1.894996452480531298e+04,1.896507622634957079e+04,1.898547937285905937e+04,1.900366866877450957e+04,1.902731246152232052e+04,1.904893322331635864e+04,1.907617736017989228e+04,1.910157967122460832e+04,1.913275490392275969e+04,1.916223457660112763e+04,1.919759277385543101e+04,1.923509368195023853e+04,1.927475054289621767e+04,1.931282571246096632e+04,1.930660850467221462e+04,1.935260682265771902e+04,1.940057435053546214e+04,1.945040110779099632e+04,1.950194999965588795e+04,1.955505699404494953e+04,1.960953174539073370e+04,1.966515866256470326e+04,1.972546798415895319e+04,1.978265191286013578e+04,1.984020695213956060e+04,1.989783555927380803e+04,1.995522638332706993e+04,2.001205757501331391e+04,2.006800034574358142e+04
1.861902510642120615e+04,1.878263648319430649e+04,1.894330998739757342e+04,1.910441260868310928e+04,1.926544173036472057e+04,1.937952461140931700e+04,1.953882205543838791e+04,1.969650376872901688e+04,1.985204851436463650e+04,2.000493515490140999e+04,2.015464502981494297e+04,2.030066450322270975e+04,2.044248767088371096e+04,2.057961921095717116e+04,2.070797984198073391e+04,2.083432762427147827e+04,2.090091368769167457e+04,2.101113602716571768e+04,2.111451921658206265e+04,2.121069966785793076e+04,2.129934615315948031e+04,2.138016272904322250e+04,2.144931184373446740e+04,2.151018316886576940e+04,2.156260620834189467e+04,2.160645541806385154e+04,2.164165188522514654e+04,2.166461328697751742e+04,2.168247315683009219e+04,2.168819649067436694e+04,2.168545552889493410e+04,2.167442012688834802e+04,2.165175899027523701e+04,2.162483977647640859e+04,2.158686528110454674e+04,2.154174066004445194e+04,2.148986158078236622e+04,2.143166032340985839e+04,2.136400450109865051e+04,2.129457952423434472e+04,2.121669064186589094e+04,2.113811843415771727e+04,2.105215700157149695e+04,2.096299626055464614e+04,2.087488905010334565e+04,2.083114355898258509e+04,2.073585306861167192e+04,2.063963902700142353e+04,2.054304901632366818e+04,2.044661183476817678e+04,2.035083314974015229e+04,2.025619146264696610e+04,2.016313443554259720e+04,2.007578409173482214e+04,1.998711951741887606e+04,1.990116787698329426e+04,1.981822552476995043e+04,1.974231921064961352e+04,1.966613662266058964e+04,1.959739713491295697e+04,1.953245492069912143e+04,1.946758118477091193e+04,1.941043985591147793e+04,1.935722944557783194e+04,1.930791867074157926e+04,1.931260496387042804e+04,1.927462882046203595e+04,1.923654894354767748e+04,1.920194694071030244e+04,1.917441317888561753e+04,1.914626213292233297e+04,1.912481076324824244e+04,1.910233690655333339e+04,1.908616577222576598e+04,1.906855039652256528e+04,1.905684452395333210e+04,1.904707763624330983e+04,1.903906892478777445e+04,1.903265190094857826e+04,1.902767709374305559e+04,1.902401434736113879e+04,1.901776991004619049e+04,1.901642721630752203e+04,1.901613815006770892e+04,1.901686382951508858e+04,1.901858930408419110e+04,1.902510852002960746e+04,1.902888215014134767e+04,1.903374702675401932e+04,1.903977418515342288e+04,1.904705156248417916e+04,1.905568141076425673e+04,1.906577740912020090e+04,1.908123899919653195e+04,1.909464080767938867e+04,1.910988642016152153e+04,1.913087040100633749e+04,1.915018081474289647e+04,1.917545202649259591e+04,1.919927157159720082e+04,1.922922591388598084e+04,1.925788535224171937e+04,1.929277994342846796e+04,1.928010135075857397e+04,1.931618445078862715e+04,1.935857575890634325e+04,1.940335882960414165e+04,1.945043912137363805e+04,1.949969143141305540e+04,1.955095998240180779e+04,1.960405899791396223e+04,1.965877376375487074e+04,1.971486216516993591e+04,1.977581746095954441e+04,1.983382029545225669e+04,1.989232823987060692e+04,1.995101365814008750e+04,2.000953549958035001e+04,2.006754310280826758e+04
1.865897381143964594e+04,1.882524883794944617e+04,1.898868878621721524e+04,1.915264909948577406e+04,1.931662711431688513e+04,1.943373098803294124e+04,1.959615093989757588e+04,1.975704348230935284e+04,1.991588511201780057e+04,2.007586003710693331e+04,2.022900350778261782e+04,2.037852998827496776e+04,2.052392734820750775e+04,2.066108681735585560e+04,2.079675734025152633e+04,2.087676798178916215e+04,2.099720315223251237e+04,2.111121138894447358e+04,2.121838806754455436e+04,2.131835732289316365e+04,2.141077524590282701e+04,2.149533297818293795e+04,2.156819234544085339e+04,2.163627845705536311e+04,2.169227763170638354e+04,2.173961967849286157e+04,2.177821444108191645e+04,2.180449367118734517e+04,2.182553206705092452e+04,2.183433490313828224e+04,2.183454323798755649e+04,2.182632160399097484e+04,2.180635691021278035e+04,2.178197005412474391e+04,2.174640691993513610e+04,2.170355154894074076e+04,2.165380203765613260e+04,2.159759454876676318e+04,2.153539966462590382e+04,2.146413622677375679e+04,2.139149149784463225e+04,2.131083138809332740e+04,2.122992812069130014e+04,2.114213033140404150e+04,2.105162660313418019e+04,2.095900101876858389e+04,2.091498881509105559e+04,2.082344375380079146e+04,2.072791290698130615e+04,2.063249918104382232e+04,2.053771452666568803e+04,2.044404234006602201e+04,2.035193360992262024e+04,2.026180349727399880e+04,2.017772009933335357e+04,2.009265506379542057e+04,2.001057308905446553e+04,1.993545817324053496e+04,1.986006259044955368e+04,1.979202245623036288e+04,1.972771636708642473e+04,1.966343847743453807e+04,1.960676366277001216e+04,1.955391037656561821e+04,1.950482931238476885e+04,1.945943635714816628e+04,1.941761594529065769e+04,1.938305904839403229e+04,1.934794216750550549e+04,1.931590146275536972e+04,1.929058932419435587e+04,1.931426556302883546e+04,1.929402995563263539e+04,1.927603426187860896e+04,1.925632407196616987e+04,1.924216488318188931e+04,1.922961610837501939e+04,1.921474359947661287e+04,1.920487511800829088e+04,1.919611181364909862e+04,1.918832715426723007e+04,1.918141914746534894e+04,1.917531179849669570e+04,1.916619911169691477e+04,1.916157415723978193e+04,1.915768445955240168e+04,1.915456210219499189e+04,1.915226458253947203e+04,1.915087316528568044e+04,1.915049077762119123e+04,1.915123948321375065e+04,1.915325757875191630e+04,1.915669636257606908e+04,1.916171662998184911e+04,1.916848495395592181e+04,1.918092890145565616e+04,1.919169883165627834e+04,1.920471254945494002e+04,1.922386911145204795e+04,1.924181141531642061e+04,1.926240425503090955e+04,1.928948851313104387e+04,1.931565830447163898e+04,1.929830894704817911e+04,1.933400605471796007e+04,1.936873559357880731e+04,1.941012886667071143e+04,1.945426447416903102e+04,1.950103042822310817e+04,1.955028045325208222e+04,1.960183450815032120e+04,1.965547983672464034e+04,1.971097253579835524e+04,1.976803962269090698e+04,1.983013435174795450e+04,1.988942106115497882e+04,1.994931644773946027e+04,2.000946075932108215e+04,2.007318984265072504e+04
1.869749828730651643e+04,1.886171699288883246e+04,1.903082238673514803e+04,1.919672753001484671e+04,1.931258259296102915e+04,1.948198254067299422e+04,1.964663684223362361e+04,1.980986750338750426e+04,1.997487821750307921e+04,2.013367000078817364e+04,2.028946924752194900e+04,2.044175554073083913e+04,2.059001390961770085e+04,2.073373763701086864e+04,2.086885597659222549e+04,2.095194077098777052e+04,2.107923061792080989e+04,2.119649993737929617e+04,2.130699362935923273e+04,2.141032497859196155e+04,2.150613851959581370e+04,2.159411330239981180e+04,2.167396602406539023e+04,2.174192152381988126e+04,2.180133990664003068e+04,2.185207136462075869e+04,2.189401389016120811e+04,2.192711496532204910e+04,2.194786943500302732e+04,2.195984154801641125e+04,2.196313716832018690e+04,2.195791383135892102e+04,2.194438004466582788e+04,2.191927977322755032e+04,2.188995256398586207e+04,2.184971396327123512e+04,2.180247659436499816e+04,2.174867825946863741e+04,2.168879249985446222e+04,2.162332445263583213e+04,2.154924216162689845e+04,2.147422490596675198e+04,2.139169821354496526e+04,2.130581127757110517e+04,2.121715521710336907e+04,2.112996127467532642e+04,2.103755468115222175e+04,2.094413401232555043e+04,2.090038111111553735e+04,2.080661031998656108e+04,2.071344345295158564e+04,2.062498297313865623e+04,2.053446717000109493e+04,2.044590952740714420e+04,2.035968449683638755e+04,2.027979856251768069e+04,2.019920830740712699e+04,2.012550892690112232e+04,2.005151562662111246e+04,1.998478018682525726e+04,1.991797041321123834e+04,1.985860248718873481e+04,1.980296094320472912e+04,1.975101611465099268e+04,1.970269945569202537e+04,1.965790675557620125e+04,1.961650177661463385e+04,1.958211795606705709e+04,1.954698385446373140e+04,1.951467870980579755e+04,1.948879798998832121e+04,1.946148971771966899e+04,1.944014826568946592e+04,1.941689874403600697e+04,1.939915932584661641e+04,1.938288163103285478e+04,1.936402549211267615e+04,1.935006418497284176e+04,1.933699173556861933e+04,1.932465976012765896e+04,1.930910626521875383e+04,1.929791793482378125e+04,1.928718784326381865e+04,1.927688127540994901e+04,1.931330915020575048e+04,1.930384555659224861e+04,1.929488560670151492e+04,1.928651424909572233e+04,1.927884306131451740e+04,1.926826867861096980e+04,1.926242794842764852e+04,1.925775581714644795e+04,1.925444240347296000e+04,1.925268858411841211e+04,1.925270188287438941e+04,1.925469219425148913e+04,1.925886741127076675e+04,1.926542902836124995e+04,1.927830822279289714e+04,1.929020219954752247e+04,1.930500637728482252e+04,1.927651690038849483e+04,1.929746657581412001e+04,1.932548040019249311e+04,1.935292576094635297e+04,1.938748665784558398e+04,1.942529870657529682e+04,1.946248953613932827e+04,1.950659719953531749e+04,1.955366249235143187e+04,1.960351222858353867e+04,1.965593668108584825e+04,1.971069117695133900e+04,1.976749823296512477e+04,1.982980291644402314e+04,1.988975821312435437e+04,1.995076580722554354e+04,2.001244794469012413e+04,2.007812052685284289e+04
1.873570686660503270e+04,1.890074371236297884e+04,1.906696118638507323e+04,1.923762939638303942e+04,1.935458996934385505e+04,1.952516532101549092e+04,1.969111747123327223e+04,1.985576429890544387e+04,2.001858969000994693e+04,2.018276735953753814e+04,2.034036832657130435e+04,2.049459074787714053e+04,2.064492035340529401e+04,2.079084962962675490e+04,2.088180450917905546e+04,2.101383374995421036e+04,2.114370552998583298e+04,2.126367762671076343e+04,2.138058075280991034e+04,2.148680449088886962e+04,2.158559649513699696e+04,2.167662463841208955e+04,2.175605902380001498e+04,2.183073329030678724e+04,2.189337257876951480e+04,2.194734919246370555e+04,2.199254866246081656e+04,2.202890639311465202e+04,2.205291975024092244e+04,2.206812712223708513e+04,2.207811737651162548e+04,2.207605334346904419e+04,2.206213696946730488e+04,2.204360491952486336e+04,2.201376754903516849e+04,2.197997571344056632e+04,2.193561803083456471e+04,2.188463005537778372e+04,2.182748585894983262e+04,2.176115671915869461e+04,2.169324412110517733e+04,2.161721661087931716e+04,2.154076576119376114e+04,2.145734340973076178e+04,2.137470432279305533e+04,2.128626545086936676e+04,2.119619993190217065e+04,2.110508921961448505e+04,2.101349857585938298e+04,2.092564295319086523e+04,2.088479881252837367e+04,2.079496390066618915e+04,2.070665173347346717e+04,2.062389132023110869e+04,2.053984084715403151e+04,2.045842356537250453e+04,2.038357751382244169e+04,2.030823673218212207e+04,2.023990694038354559e+04,2.017506404811338871e+04,2.011009691830925294e+04,2.005243316607500310e+04,1.999837562503363006e+04,1.994787544414814329e+04,1.990084383451307076e+04,1.985715554245686508e+04,1.981665277201941353e+04,1.978291162221904960e+04,1.974820999877669965e+04,1.971607044341132860e+04,1.969003215614118380e+04,1.966229523652768694e+04,1.964016440467632492e+04,1.961582079916200018e+04,1.959659588798540062e+04,1.957846585050021531e+04,1.955741914150718367e+04,1.954084812121413415e+04,1.952478113453500555e+04,1.950526792355976067e+04,1.948979731961639482e+04,1.947447684815493994e+04,1.945544103126163827e+04,1.944029533623199677e+04,1.942523956307608751e+04,1.940650116830700426e+04,1.939180551625127555e+04,1.937744173874025000e+04,1.935972159431310138e+04,1.934647761762194568e+04,1.933406939444309683e+04,1.931886844786180882e+04,1.930878891638026107e+04,1.930022832132314215e+04,1.929343541935493704e+04,1.928866182599589229e+04,1.928615723971684929e+04,1.928616463916131761e+04,1.928891552991440403e+04,1.929462531632525497e+04,1.930348887183150509e+04,1.931567637806391576e+04,1.933517342188305338e+04,1.935440569608242367e+04,1.938112272121748538e+04,1.940769932391919428e+04,1.944178974960907362e+04,1.947951957862550626e+04,1.951700216985915904e+04,1.956173271411901806e+04,1.960973062644936726e+04,1.966079025114167598e+04,1.971466717560405959e+04,1.977484102268749848e+04,1.983346864519221708e+04,1.989397288380251848e+04,1.995598154036904452e+04,2.001909976094029844e+04,2.008662502039162791e+04
1.877479304668540135e+04,1.893966695084082312e+04,1.910579365076523391e+04,1.927644438531339983e+04,1.939352481190272374e+04,1.956049431543413084e+04,1.973056120648517390e+04,1.989566038610678515e+04,2.005908009439165471e+04,2.022399289102564217e+04,2.038249788315006299e+04,2.053778893375219195e+04,2.068935621282871580e+04,2.083669491901237052e+04,2.092923823691604775e+04,2.106302534114234732e+04,2.119481511575490003e+04,2.131687697395053692e+04,2.143602041867177468e+04,2.154464175299325143e+04,2.164597231776441913e+04,2.173966982916096458e+04,2.182542797291732859e+04,2.189946864270264632e+04,2.196510317585579469e+04,2.202565601301015704e+04,2.207399225656170165e+04,2.211005734592513181e+04,2.214080203052808065e+04,2.215928542027648655e+04,2.216907525515899761e+04,2.217378717952311854e+04,2.216318037373572588e+04,2.214793068233563099e+04,2.212485486590449000e+04,2.209081537844461855e+04,2.204967771784792421e+04,2.200187558825218002e+04,2.194788095920466003e+04,2.188819974684409681e+04,2.182336706912185764e+04,2.175040829906918225e+04,2.167696520327709732e+04,2.159654308158750064e+04,2.151327496268547839e+04,2.143135311772261048e+04,2.134420597490054206e+04,2.125599184574338142e+04,2.116727810342522571e+04,2.108225786944993888e+04,2.099417123287101276e+04,2.090713373528001830e+04,2.087534261784737464e+04,2.079176912106364034e+04,2.071047331658497569e+04,2.063539218401268590e+04,2.055958088605958619e+04,2.049050121659407159e+04,2.042470671425026376e+04,2.035866298981141881e+04,2.029974437855629367e+04,2.024432381823964533e+04,2.019237657167471480e+04,2.014383377583260881e+04,2.009858563705001143e+04,2.005648516049562022e+04,2.001735235497690155e+04,1.998470625039283186e+04,1.995087196986805066e+04,1.991931565629871329e+04,1.989352092483532033e+04,1.986573749928083271e+04,1.984318240141723072e+04,1.981809013573278207e+04,1.979770783721652697e+04,1.977803484798091813e+04,1.975508660093671642e+04,1.973617751513858093e+04,1.971360075261769816e+04,1.969474836676623090e+04,1.967573400114657125e+04,1.965270315362582915e+04,1.963316622228093911e+04,1.960955419234288274e+04,1.958947356521099573e+04,1.956541017297454528e+04,1.954506470466090832e+04,1.952477909383451333e+04,1.950092542298213812e+04,1.948131333032154362e+04,1.945855468362069223e+04,1.944052828510259860e+04,1.942368778096238384e+04,1.940449557118804660e+04,1.939088595089211594e+04,1.937933007036917843e+04,1.936628881134293624e+04,1.935971251564854174e+04,1.935604095234698616e+04,1.935553021293148049e+04,1.935841433903179131e+04,1.936490079077859991e+04,1.937899976102216169e+04,1.939318928028817754e+04,1.941140525020964560e+04,1.943753760021433118e+04,1.946396076524979435e+04,1.949829234463413013e+04,1.953664059751288733e+04,1.957889425595293869e+04,1.962489686621862347e+04,1.967444778861882514e+04,1.972730383890907979e+04,1.978318154937613872e+04,1.984176001876356895e+04,1.990268431173576391e+04,1.996556936074842815e+04,2.003372287255423726e+04,2.009927008875820320e+04
1.881219087088000379e+04,1.897971719570574351e+04,1.914473711421145708e+04,1.931061959771337570e+04,1.943052993616586900e+04,1.959668129073921591e+04,1.976228807115228847e+04,1.993060089889090159e+04,2.009363425358245149e+04,2.025465045993562671e+04,2.041314929199291510e+04,2.056862881449109409e+04,2.072418732215676573e+04,2.086852734142413829e+04,2.096180765786246047e+04,2.110026925818633754e+04,2.123327707407198614e+04,2.135678000215356587e+04,2.147756413846171927e+04,2.158803879097136087e+04,2.169141819920917624e+04,2.178735099228328909e+04,2.187552040911940276e+04,2.195214377829994191e+04,2.202401150313511607e+04,2.208392992342982325e+04,2.213526187143317657e+04,2.217791587781516137e+04,2.220838394469858031e+04,2.223362706001676270e+04,2.224677542821023962e+04,2.225142303583936882e+04,2.224774966907739872e+04,2.223598827076950693e+04,2.221295449649551301e+04,2.218592463510233210e+04,2.214833367323916173e+04,2.210407826048691641e+04,2.205362556433706777e+04,2.199747784594356199e+04,2.193616762747970643e+04,2.186673107454110868e+04,2.179678365882413345e+04,2.172339949043767410e+04,2.164362878876912873e+04,2.156159782923717285e+04,2.148148656475008465e+04,2.139672870260421769e+04,2.131145779369396041e+04,2.122984183333552210e+04,2.114516864110075403e+04,2.106152641547910753e+04,2.098302464838890592e+04,2.090275787414747174e+04,2.087848555038275663e+04,2.080308540958142839e+04,2.073410250116069801e+04,2.066456423089304008e+04,2.060183635936607607e+04,2.054242319058888825e+04,2.048637881578708766e+04,2.043370712456517504e+04,2.038436394158611074e+04,2.033825982542554266e+04,2.029526348520570900e+04,2.025520576114245341e+04,2.021788410649794969e+04,2.018676086244761245e+04,2.015420683261624072e+04,2.012733234304169309e+04,2.009846564551652409e+04,2.007471304094188963e+04,2.004838066192550468e+04,2.002659636001082254e+04,2.000166510579394526e+04,1.998076006738372962e+04,1.995620512580830837e+04,1.993523938740533777e+04,1.991022346669851686e+04,1.988847876700421330e+04,1.986241697582989582e+04,1.983945305450251908e+04,1.981205959296069341e+04,1.978775077274092473e+04,1.975906465072237188e+04,1.973361455303357798e+04,1.970400286620896077e+04,1.967793647601074190e+04,1.964807516707683681e+04,1.961842207657749532e+04,1.959304229380094330e+04,1.956463881104040775e+04,1.954111577777890489e+04,1.951519331297735334e+04,1.949481724826313439e+04,1.947651643904767116e+04,1.945681492642420926e+04,1.944366681328800041e+04,1.943357273328240262e+04,1.942682970532501349e+04,1.942371121219862835e+04,1.942446230286610080e+04,1.942929507604040555e+04,1.943838461393615580e+04,1.945186542813424603e+04,1.947364262612073799e+04,1.949613732270494802e+04,1.952696323726262199e+04,1.955846367485259543e+04,1.959813941793877166e+04,1.964203799841305590e+04,1.968996476785340928e+04,1.974167882838207879e+04,1.979689535116072511e+04,1.985528851975916768e+04,1.991649505682973540e+04,1.998384552716018516e+04,2.004945413630787516e+04,2.011660473337548319e+04
1.885684421693571494e+04,1.901838499006730854e+04,1.918504915369595983e+04,1.929873532556815189e+04,1.946300634256756166e+04,1.963111204697939684e+04,1.979499543495746912e+04,1.995800500369191286e+04,2.012336824772635009e+04,2.028318399813736323e+04,2.044069145544656203e+04,2.059540312861840357e+04,2.074682999439528794e+04,2.089448388261560467e+04,2.098779000048886519e+04,2.112647816561892978e+04,2.125636225168601959e+04,2.138424005884336657e+04,2.150246349809187814e+04,2.161423143537383294e+04,2.171915558400755981e+04,2.181687664314688300e+04,2.190706819275123416e+04,2.198944047558575403e+04,2.206025345137843397e+04,2.212630236797206453e+04,2.218045463463969645e+04,2.222609448887023609e+04,2.225970591527159559e+04,2.228822011566461879e+04,2.230476603406600771e+04,2.231291610254946863e+04,2.231283626339261536e+04,2.230474641950495425e+04,2.228891907643011655e+04,2.226221578456295538e+04,2.223193543993029743e+04,2.219156298998987768e+04,2.214501954099279828e+04,2.209280086759047117e+04,2.203543407131597633e+04,2.197347225108245038e+04,2.190397697056902689e+04,2.183455526469822507e+04,2.175876077106402954e+04,2.168425782856467413e+04,2.160455074159399373e+04,2.152733309481127071e+04,2.144603667402418796e+04,2.136476061646931339e+04,2.128763462642091326e+04,2.120792294712751755e+04,2.113330334258810035e+04,2.105691255803205422e+04,2.098638597319179098e+04,2.091471565612219274e+04,2.089960533262309036e+04,2.083732031039794674e+04,2.077815972099700593e+04,2.071861421757622156e+04,2.066591177121948567e+04,2.061644537431685603e+04,2.057377514223635080e+04,2.053055201770915301e+04,2.049023826901955181e+04,2.045264244657184463e+04,2.041753938897684566e+04,2.038833527648137533e+04,2.035744564757577609e+04,2.033189229392082780e+04,2.030404875713001820e+04,2.028093567150770104e+04,2.025490683749562595e+04,2.023300808527582558e+04,2.020759625595316174e+04,2.018576678553619422e+04,2.015990136054949835e+04,2.013716608336364152e+04,2.010998685947945341e+04,2.008561699044349371e+04,2.005654222951130942e+04,2.003011420460147201e+04,1.999888930982819875e+04,1.996659797604355845e+04,1.993704655710386578e+04,1.990288784875808051e+04,1.986800373994899564e+04,1.983634624552991590e+04,1.980065518761225394e+04,1.976494388124978286e+04,1.973328495432576165e+04,1.969847576776548522e+04,1.966462457833386725e+04,1.963588535851368215e+04,1.960506652880509500e+04,1.958012129569912213e+04,1.955384559751182678e+04,1.953419986139427056e+04,1.951393991086760070e+04,1.950101380444722599e+04,1.949192703872479615e+04,1.948696202878819895e+04,1.948636611937300768e+04,1.949034721347468439e+04,1.949906994321409729e+04,1.951265243985038251e+04,1.953497104144303012e+04,1.955843380418294691e+04,1.959060964526855969e+04,1.962760740402125521e+04,1.966551344035691000e+04,1.971170409064856358e+04,1.976215387089320575e+04,1.981657767336061806e+04,1.987838962903525680e+04,1.993972548180722515e+04,2.000392918506346177e+04,2.007427009765309049e+04,2.014286114679891034e+04
1.890622226465883432e+04,1.906454466997191776e+04,1.922801549822773086e+04,1.933860650311480276e+04,1.949985155471586040e+04,1.966125695579458261e+04,1.982614484074935899e+04,1.998654789335429086e+04,2.014579472435498610e+04,2.030342937906490988e+04,2.045898885530786356e+04,2.061200453114419361e+04,2.076200398127819062e+04,2.090851317983417539e+04,2.100093750854095560e+04,2.113907992741133785e+04,2.126872470790438820e+04,2.139667728711289237e+04,2.151528601831680862e+04,2.163131105689582182e+04,2.173722293674323009e+04,2.183623013416834874e+04,2.192799734996864572e+04,2.200872636843440705e+04,2.208516920069814660e+04,2.215011683832923882e+04,2.220689642558479682e+04,2.225538585606688866e+04,2.229551392760869930e+04,2.232726229260451510e+04,2.234722207761384198e+04,2.235893974240063108e+04,2.236256513755620108e+04,2.235830270187268616e+04,2.234641026651393622e+04,2.232719718495343113e+04,2.229756975499953842e+04,2.226137983760036877e+04,2.221907639036985347e+04,2.217462325212007272e+04,2.211810647486220114e+04,2.206050437900194083e+04,2.199890629922450171e+04,2.193389419955995982e+04,2.186253807037489605e+04,2.179246798813523492e+04,2.171721226618322544e+04,2.164443305606095237e+04,2.156758350814407459e+04,2.149433130192535464e+04,2.141803038911809563e+04,2.134633106440643314e+04,2.127608049127392587e+04,2.120404881475909497e+04,2.113781259504531045e+04,2.107404846796038328e+04,2.100934234255523188e+04,2.095117704458901426e+04,2.089603483960466110e+04,2.089409508022700902e+04,2.084516837684178608e+04,2.079933166393716238e+04,2.075650107557282900e+04,2.071654549047854380e+04,2.068289970879771863e+04,2.064814236074523069e+04,2.061562493814516347e+04,2.058869816890772199e+04,2.055982196809080779e+04,2.053593081807310227e+04,2.050944304040231509e+04,2.048729507029085653e+04,2.046188766001228942e+04,2.044018629442088422e+04,2.041459870807960397e+04,2.039214446201539249e+04,2.036526175652068923e+04,2.034104570809876896e+04,2.031198585638697841e+04,2.028526956811372656e+04,2.025345459513264359e+04,2.022383154397795442e+04,2.018903809764934704e+04,2.015278501923326985e+04,2.011516048723587301e+04,2.008000964088013279e+04,2.004010657661233563e+04,1.999937597732682480e+04,1.995808484117253101e+04,1.991653741038314183e+04,1.987881460267191869e+04,1.983780464616633253e+04,1.979762896256535896e+04,1.975869253419898450e+04,1.972518076340417610e+04,1.968998686823653406e+04,1.965728790452404064e+04,1.963128303630760638e+04,1.960480480443660053e+04,1.958580275735011674e+04,1.956704397384109325e+04,1.955644072282314301e+04,1.955047661902362597e+04,1.954939192613182240e+04,1.955338105342359631e+04,1.956258909621986095e+04,1.958090652042202419e+04,1.960078110630327137e+04,1.962977914227364818e+04,1.966025737988311448e+04,1.969965389301386313e+04,1.974400011590489885e+04,1.979306248831530684e+04,1.984655662828445202e+04,1.990415044825631776e+04,1.996546791548555484e+04,2.003381197457548114e+04,2.010128973621976911e+04,2.017483705755631672e+04
1.896160990911387489e+04,1.911568749374678009e+04,1.927492381533765001e+04,1.938135906121853623e+04,1.953852190050805802e+04,1.969595816167976591e+04,1.985326888368406799e+04,2.001004518632113468e+04,2.016586820839857683e+04,2.032397506625673850e+04,2.047657239149749512e+04,2.062690498267658404e+04,2.077452114123982028e+04,2.091539816626004176e+04,2.100610294008289929e+04,2.114288695379707497e+04,2.127514146537374472e+04,2.139883479008678114e+04,2.151716174359893193e+04,2.163326846656724229e+04,2.173962204766622745e+04,2.183942572929197922e+04,2.193233618670410942e+04,2.201454399778452353e+04,2.209279045714097447e+04,2.215985030821667169e+04,2.221903600763893337e+04,2.227367148105104570e+04,2.231327949581286521e+04,2.234821189448150108e+04,2.237502327483394765e+04,2.239034950694016879e+04,2.239776697480634903e+04,2.239746216307385475e+04,2.238967558329261374e+04,2.237470006331158220e+04,2.234943321657268098e+04,2.231770402870106045e+04,2.228341218402184313e+04,2.224011119307205081e+04,2.219176356362542720e+04,2.213890467865602113e+04,2.208209207781325676e+04,2.201839999258870375e+04,2.195540447047623456e+04,2.189019770500186132e+04,2.182336142216360895e+04,2.175193266152980505e+04,2.168352894288397511e+04,2.161159266826458042e+04,2.154373698204505490e+04,2.147687362405919703e+04,2.140783912277276977e+04,2.134418635438734782e+04,2.128266364303207956e+04,2.122355120776526746e+04,2.116344580452269292e+04,2.110976896587078227e+04,2.105901199507398997e+04,2.101123218708040076e+04,2.096643129788772785e+04,2.092822890081192600e+04,2.088918856906195288e+04,2.090294802955389605e+04,2.086909720802897937e+04,2.084108149692302686e+04,2.081147028302762192e+04,2.078713507356241462e+04,2.076058038067974849e+04,2.073865466394508258e+04,2.071382111518143211e+04,2.069293343263023417e+04,2.066843920696835266e+04,2.064722517146123573e+04,2.062536574820871465e+04,2.059895775629405398e+04,2.057496803224424366e+04,2.054593335696595022e+04,2.051527866792585701e+04,2.048650290177090210e+04,2.045223417189257452e+04,2.041605575832605246e+04,2.038162896998901851e+04,2.034170110619111801e+04,2.030002649268883397e+04,2.025676223943874356e+04,2.021211476186892833e+04,2.016633732910934486e+04,2.012342630179555272e+04,2.007632847965386463e+04,2.002910594143319759e+04,1.998216040470541338e+04,1.993591784517234191e+04,1.989082239863814902e+04,1.984732993924155016e+04,1.980590143189852824e+04,1.976699615990871098e+04,1.973483629326269147e+04,1.970232699150856934e+04,1.967742090012974222e+04,1.965296018446321250e+04,1.963685252868907992e+04,1.962563481634657364e+04,1.961579253080810304e+04,1.961512183594738599e+04,1.962379383396578487e+04,1.963435290041507687e+04,1.965064460607047658e+04,1.967644846951292129e+04,1.970415415614141966e+04,1.974119133276355569e+04,1.978360912876433576e+04,1.983117889562630444e+04,1.988361801935476251e+04,1.994059311608312419e+04,2.000172389813530026e+04,2.006658765271521406e+04,2.013842648156115320e+04,2.020933922039254685e+04
1.867751836954703322e+04,1.882633437995507848e+04,1.892647687648728606e+04,1.907775171979409060e+04,1.922975098550025723e+04,1.938212801164068514e+04,1.953452622676207102e+04,1.968657830966607435e+04,1.983790569492976647e+04,1.998811846873443574e+04,2.013681569066346856e+04,2.028358616741737933e+04,2.042800969403257477e+04,2.051515233168983832e+04,2.065365468832501210e+04,2.078852349439729005e+04,2.091494470724966959e+04,2.104128296899591805e+04,2.115837130057593458e+04,2.127449754812617903e+04,2.138062206761725247e+04,2.148070524656982161e+04,2.157440081919732620e+04,2.165715234604859143e+04,2.173717735228940728e+04,2.180575771132064983e+04,2.186693290899321437e+04,2.192474558956405963e+04,2.196649603589691105e+04,2.200472078180304379e+04,2.203521846894914052e+04,2.205387105112982681e+04,2.206496453536444460e+04,2.206866228796285577e+04,2.206518131475959672e+04,2.205479076345387148e+04,2.203780970453404007e+04,2.201042606859499938e+04,2.198141109748327290e+04,2.194284723777053296e+04,2.189939831201118068e+04,2.185157859018843737e+04,2.179992508385117981e+04,2.174499133469347726e+04,2.168734092304864316e+04,2.162754079064936377e+04,2.156189596734987572e+04,2.149947023348568473e+04,2.143654838744105655e+04,2.137364373030405841e+04,2.130693692840475705e+04,2.124547675676806830e+04,2.118537542664274224e+04,2.112699701890849974e+04,2.106630486317261239e+04,2.101225804821724887e+04,2.096072183965216391e+04,2.091184954959631432e+04,2.086573782122143894e+04,2.082682799121702556e+04,2.078631366399419494e+04,2.074851562401326373e+04,2.071331322093040217e+04,2.068497023529309081e+04,2.065442394727159990e+04,2.063028307175621740e+04,2.060339552650184487e+04,2.058232693580826162e+04,2.055785603488970082e+04,2.053853310168857570e+04,2.051509182283066912e+04,2.049609589481147123e+04,2.047673066154244589e+04,2.045219085620570695e+04,2.043109205088665476e+04,2.045432595424263855e+04,2.043026090793713229e+04,2.040000294059849693e+04,2.036773091153774294e+04,2.033770507817019825e+04,2.030104733889308409e+04,2.026210506974515738e+04,2.022530932053417200e+04,2.018190474424586864e+04,2.013641848416742869e+04,2.008902536408868036e+04,2.003995152253846754e+04,1.998947182404226623e+04,1.993790648264621268e+04,1.988561695022482309e+04,1.983300113327574218e+04,1.978048801202524919e+04,1.972853174457582645e+04,1.967760534638311947e+04,1.962819404145138105e+04,1.958078838619258022e+04,1.953587726985232439e+04,1.949394089673017152e+04,1.945544385510671418e+04,1.942541183661730611e+04,1.939510681118999491e+04,1.937407046659881598e+04,1.935347093925674562e+04,1.934278759874458774e+04,1.933767330775671871e+04,1.933832140872109449e+04,1.934486871547784540e+04,1.935739321988174925e+04,1.938050806902255863e+04,1.940498481828061631e+04,1.943989725098773488e+04,1.948048995454728720e+04,1.952654463144647889e+04,1.957778709923199494e+04,1.963389049173876992e+04,1.969447914225718705e+04,1.975913308937105467e+04,1.983189346288013621e+04,1.990326118726024288e+04
1.874818969067215221e+04,1.884075869303572108e+04,1.898483282912918366e+04,1.912999222726662992e+04,1.927593917575708474e+04,1.941778464610798983e+04,1.956441049795903382e+04,1.971087261762376875e+04,1.985683050603722222e+04,2.000193058772906079e+04,2.014580612145605846e+04,2.028807760311244056e+04,2.042835368128155824e+04,2.051173523725039558e+04,2.064687591669030371e+04,2.077880040691699833e+04,2.090271248988487059e+04,2.102698366537265247e+04,2.114246018797394936e+04,2.125311600670462940e+04,2.135855987123743398e+04,2.145841768202581443e+04,2.155233708982961252e+04,2.163999211162925349e+04,2.171685523598542204e+04,2.179115436948859133e+04,2.185421172598301200e+04,2.191008638262891327e+04,2.195865157842554618e+04,2.199982999096388812e+04,2.203359600960509852e+04,2.205580883202888072e+04,2.207490213482771651e+04,2.208267528653994668e+04,2.208349145678427885e+04,2.207759792769857449e+04,2.206112305391283007e+04,2.204275518344744341e+04,2.201453356918427744e+04,2.198525184108235408e+04,2.194700773667951580e+04,2.190447826872530277e+04,2.185818535592747503e+04,2.180866846998338588e+04,2.175647805774433073e+04,2.170216875314444769e+04,2.164629248160636052e+04,2.158939156276127324e+04,2.153199191865569446e+04,2.147459649412683211e+04,2.141339280046918429e+04,2.135738384225923801e+04,2.130268932795667206e+04,2.124966221951099578e+04,2.119860626760908053e+04,2.114977269492950290e+04,2.110335767866036622e+04,2.105950067561311880e+04,2.101828361989071709e+04,2.098410493018029956e+04,2.094819734100089408e+04,2.091483627160158358e+04,2.088827724923880305e+04,2.085955952911588247e+04,2.083723592597909737e+04,2.081224430161967757e+04,2.079308411844595685e+04,2.077502138085706974e+04,2.075329739478667034e+04,2.073636341884723515e+04,2.071501625464347308e+04,2.069772430119820638e+04,2.067969829082916840e+04,2.065615876599354669e+04,2.063563274332878063e+04,2.060894764185248641e+04,2.058471316494248458e+04,2.055380946379929082e+04,2.052494784061246901e+04,2.048908420849137474e+04,2.045057887486132677e+04,2.045954616451828042e+04,2.041573413318654639e+04,2.037373524339811411e+04,2.032492361234728014e+04,2.027386989124765387e+04,2.021640591087331995e+04,2.016165470304977498e+04,2.010555627284327056e+04,2.004850095370266354e+04,1.999091738227853784e+04,1.993326684798201313e+04,1.987603710933044204e+04,1.981523820540096494e+04,1.976037646759176278e+04,1.970748931535304291e+04,1.965710117914108559e+04,1.960972753034319612e+04,1.956586764389634482e+04,1.953056077702864422e+04,1.949514070482301759e+04,1.946456752335431520e+04,1.944379678501765011e+04,1.942857543094962602e+04,1.941459404736047145e+04,1.941123431063769385e+04,1.941407000743679237e+04,1.942778189103800105e+04,1.944323947063475498e+04,1.946499495156947523e+04,1.949753313570949831e+04,1.953611513667891268e+04,1.958052882730268175e+04,1.963050369021671941e+04,1.968571408827853156e+04,1.974578323509532493e+04,1.981028780376981013e+04,1.988325337187963305e+04,1.995519362892938079e+04
1.883279909167374717e+04,1.891361416139465291e+04,1.905058736265651532e+04,1.918865462566670612e+04,1.932756302913976833e+04,1.946248059376480523e+04,1.960231136240359046e+04,1.974216568184108473e+04,1.988174566602116101e+04,2.001628186634322628e+04,2.015439238746275078e+04,2.029124374102329602e+04,2.042647749078163179e+04,2.050524135040881811e+04,2.063619136008227360e+04,2.075997105406742776e+04,2.088503119544510264e+04,2.100216699623639579e+04,2.111538452129426878e+04,2.122861133776049246e+04,2.133278953331065713e+04,2.143188574814476306e+04,2.152554235652447096e+04,2.160917583427808131e+04,2.169099878095029271e+04,2.176224488754032063e+04,2.183114579443720868e+04,2.188906837006963906e+04,2.194008730727320653e+04,2.198410268451165757e+04,2.201688582009746460e+04,2.204681121743522817e+04,2.206557498987769941e+04,2.208164453451332520e+04,2.208684499787731329e+04,2.208556930922405445e+04,2.207809122154724901e+04,2.206056366304479889e+04,2.204169675990194082e+04,2.201354861090530176e+04,2.198492740757009597e+04,2.194794175244969665e+04,2.190727426400347031e+04,2.186344751088257181e+04,2.181699610245137592e+04,2.176845981292214128e+04,2.171837657539249631e+04,2.166727545578681747e+04,2.161566971833203570e+04,2.156405009390477790e+04,2.151287836036548833e+04,2.146258133987727342e+04,2.141354541225425783e+04,2.136611163569841301e+04,2.132487765575913363e+04,2.128148051273208694e+04,2.124039925482953549e+04,2.120175967914753710e+04,2.116562943487509619e+04,2.113636396665067878e+04,2.110523738260602113e+04,2.108083425469239592e+04,2.105430543120307266e+04,2.103415168839693069e+04,2.101141109977543238e+04,2.099452163514005952e+04,2.097879849548271159e+04,2.095952402501748293e+04,2.094507188905600924e+04,2.093068683478844468e+04,2.091160025637893705e+04,2.089618687777454033e+04,2.087968442854765453e+04,2.085734066771282232e+04,2.083759553396207048e+04,2.081134631276869914e+04,2.078712010616910993e+04,2.075587145582886296e+04,2.072623358945536893e+04,2.068924247220146935e+04,2.064922452508730930e+04,2.060615571105972049e+04,2.056007072207983583e+04,2.051106377060222439e+04,2.050943375594285317e+04,2.045509163230645936e+04,2.039845546164203552e+04,2.033984752308542375e+04,2.027963986166889663e+04,2.021383399640576681e+04,2.015171129668244976e+04,2.008935470280147274e+04,2.002728300868417136e+04,1.996156988499336876e+04,1.990169191816463717e+04,1.984374979109587730e+04,1.978830068783662864e+04,1.973589255148623488e+04,1.968705657247462659e+04,1.964229988964606309e+04,1.960209861056390218e+04,1.956689125177843380e+04,1.954163849600931280e+04,1.951757133763641468e+04,1.950411169176278054e+04,1.949693234818239580e+04,1.949621097233932232e+04,1.950206181644412572e+04,1.951453408997307997e+04,1.953817619672836736e+04,1.956378185757095343e+04,1.960032175701190135e+04,1.964302540327204042e+04,1.969162677093051025e+04,1.974580264262238052e+04,1.980517665892993682e+04,1.987381215366581455e+04,1.994225872310047271e+04,2.001450615681149065e+04
1.887758152614225401e+04,1.900049687075478141e+04,1.912940564195526531e+04,1.925479120767433778e+04,1.938571120613717358e+04,1.951274387331638718e+04,1.964482294723080122e+04,1.977711618720012484e+04,1.990489823480314226e+04,2.003688528365973616e+04,2.016385660138702951e+04,2.029439434295936371e+04,2.042371666948922211e+04,2.049702643293092842e+04,2.062297850574250333e+04,2.074225294955706340e+04,2.085892620847333455e+04,2.097698474328673910e+04,2.108727671318710782e+04,2.119380080212512985e+04,2.129617144891864154e+04,2.139401238042328623e+04,2.148696157453666092e+04,2.157467632389618666e+04,2.165259967485422385e+04,2.172894238427371602e+04,2.179497904516119161e+04,2.185473528104429715e+04,2.190804078276609653e+04,2.195477147767588031e+04,2.199485250458877999e+04,2.202826054905966157e+04,2.205085786137962714e+04,2.206690722840648959e+04,2.208072276383187273e+04,2.208415508817229420e+04,2.208162151295764488e+04,2.207341802513430594e+04,2.205571823268249864e+04,2.203724707750673406e+04,2.201007732033805223e+04,2.198302452724109753e+04,2.194820246361542377e+04,2.191029205117316451e+04,2.187401568197403685e+04,2.183149346530437469e+04,2.178744274969663820e+04,2.174237731324689230e+04,2.169679594885863480e+04,2.165117559465096565e+04,2.160596476915490348e+04,2.156157742096047150e+04,2.151838729645020794e+04,2.148100260234699817e+04,2.144115417381841689e+04,2.140333685238161706e+04,2.136772079585920437e+04,2.133872744102697470e+04,2.130780619962950004e+04,2.128356606133270543e+04,2.125732497461093590e+04,2.123759626417915570e+04,2.121557015146265621e+04,2.119967916419371613e+04,2.118533316022969666e+04,2.116789621129594161e+04,2.115570186241177726e+04,2.114405063570837956e+04,2.113255893640560680e+04,2.111648739353328710e+04,2.110412161038949853e+04,2.109071630134937004e+04,2.107588090229977388e+04,2.105489223943068646e+04,2.103610459988671937e+04,2.101048669773849542e+04,2.098648421030180180e+04,2.095512705694197211e+04,2.092497128395896289e+04,2.088713318294612691e+04,2.084590559636492981e+04,2.080127200880774762e+04,2.075327706008727546e+04,2.070202730912933475e+04,2.064769102740130620e+04,2.059049702442970010e+04,2.053073252320202300e+04,2.051442927017170587e+04,2.045056243932721554e+04,2.038529924189721351e+04,2.031472677521876176e+04,2.024814914360363036e+04,2.018172354617263773e+04,2.011158286477506044e+04,2.004717302245332394e+04,1.998465347612582264e+04,1.992461073231400223e+04,1.986313501950935461e+04,1.980974991101108026e+04,1.976051213368785102e+04,1.971592442949165707e+04,1.968098229404891026e+04,1.964705605460194056e+04,1.962357321681812755e+04,1.960178339262204827e+04,1.959101990952677443e+04,1.958693782686817576e+04,1.958966731126455124e+04,1.959927163424281753e+04,1.961574640120123513e+04,1.964356463882874232e+04,1.967803569380333647e+04,1.971444270626400248e+04,1.976157235599073465e+04,1.981457416638769791e+04,1.987756273123624851e+04,1.994112847910835990e+04,2.000929976463122875e+04,2.008601867050287547e+04
1.898347903431067243e+04,1.909754176663511316e+04,1.921287910036079120e+04,1.933394989837007597e+04,1.945137029327367782e+04,1.957415697483648546e+04,1.969302076207863865e+04,1.981234567838456132e+04,1.993641182409820613e+04,2.005602263920850237e+04,2.017986412691866281e+04,2.029880352819297696e+04,2.041700358368031448e+04,2.048842890447709942e+04,2.060416977879797923e+04,2.071821143284428399e+04,2.083460221736124367e+04,2.094415207114626537e+04,2.105090510749415262e+04,2.115448099059009110e+04,2.125449932298759813e+04,2.135058453596947948e+04,2.144237102750383201e+04,2.152950844805175439e+04,2.160741845183045371e+04,2.168431675597882713e+04,2.175143966036319034e+04,2.181280153633723967e+04,2.186820844795127050e+04,2.191751065172147355e+04,2.196060595300103887e+04,2.199744241869455436e+04,2.202802037898221170e+04,2.204822654412232805e+04,2.206234775403444655e+04,2.207471989353257231e+04,2.207721738540689694e+04,2.207427663417346776e+04,2.206204151509638177e+04,2.204921076169400476e+04,2.203200865615968360e+04,2.200668691164909978e+04,2.198206205586856231e+04,2.195024621708699851e+04,2.191591176469731727e+04,2.188376942494674586e+04,2.184591707371009397e+04,2.180704776165119256e+04,2.176764388352914830e+04,2.173240155434823828e+04,2.169329646005012910e+04,2.165495228315368877e+04,2.161772937679133611e+04,2.158620573214566684e+04,2.155213492432559724e+04,2.152425012212744332e+04,2.149418363697704626e+04,2.146629203501241864e+04,2.144490831988910213e+04,2.142573431761382381e+04,2.140441208071360597e+04,2.138938404429922230e+04,2.137618006893433630e+04,2.136027374780931859e+04,2.134998030026225024e+04,2.134068681499388185e+04,2.133204400717347744e+04,2.132367567489354406e+04,2.131088160379766487e+04,2.130186337004482630e+04,2.129190188006657991e+04,2.128058689221390523e+04,2.126320504854814499e+04,2.124800621084609884e+04,2.123031873207338504e+04,2.120549873624046450e+04,2.118191154597236891e+04,2.115066393651778344e+04,2.111589290480490308e+04,2.108182345465643448e+04,2.103968737245010561e+04,2.099381816852203337e+04,2.094427004157719784e+04,2.089116116468640394e+04,2.083467341879068408e+04,2.077505113244429231e+04,2.070818114864060772e+04,2.064325385917123640e+04,2.057627312647216604e+04,2.050324546492056106e+04,2.043358219534062664e+04,2.040903191627984052e+04,2.033879408530259388e+04,2.026476878998006578e+04,2.019636958269047318e+04,2.012980987236078363e+04,2.006125615778914653e+04,2.000019355083379196e+04,1.994276773881717236e+04,1.988953729439628660e+04,1.984102793390146689e+04,1.979772562147586723e+04,1.976007022521892213e+04,1.973297125668820809e+04,1.970773332024435513e+04,1.969366799283557339e+04,1.968646461954314145e+04,1.968626730940488051e+04,1.969315181920406758e+04,1.970712479144858662e+04,1.973264527173215174e+04,1.976054667127414723e+04,1.979966404095134931e+04,1.984522094621119322e+04,1.989690225816567545e+04,1.995433697148200008e+04,2.001710304716113023e+04,2.008918342739160289e+04,2.016116428218985675e+04
